3.65843076,3.69094342,3.737105345,3.792217568,3.823064708,3.852076274,3.870992185,3.889205377,3.917299156,3.980203814,4.058385746,4.110254455,4.135834948,4.156341357,4.217452954,4.241955611,4.272840263,4.347416068,4.413354173,4.467178493,4.540934042,4.574954673,4.597616755,4.620971554,4.647947484,4.692899031,4.746390747,4.811793686,4.885961863,4.980528915,5.055342294,5.12425633,5.173079087,5.259543607,5.359002188,5.394193185,5.458853392,5.639954986,5.716123789,5.649705533,5.665930603,5.694261957,5.802510785,5.899115974,5.964578931,6.02630322,6.095289778,6.16454392,6.23123226,6.309521726,6.384067521,6.459821194,6.553948109,6.632842763,6.696970303,6.782972179,6.902221944,6.999644889,7.070892154,7.105537981,7.166964676,7.225197874,7.231119725,7.224912785,7.282043138,7.312302595,7.297220381,7.323218506,7.405836824,7.559159737,7.498180681,7.590231947,7.472662707,7.413804314,7.408025008,7.41148859,7.480635198,7.459158487,7.413271647,7.451983745,7.434525789,7.456967802,7.490798374,7.47356799,7.43286277,7.399979994,7.388153798,7.498923414,7.697680525,7.815169741,7.669624258,7.585387934,7.586258206,7.588008753,7.507873711,7.556653954,7.374024383,7.263582369,7.121688028,7.030306971,6.908986558,6.813944358,6.685074086,6.687269772,6.602450766,6.500166302,6.513965614,6.514510785,6.455404814,6.437329165,6.435110972,6.348591435,6.39417568,6.360875274,6.334229447,6.321965614,6.28905533,6.291908721,6.245496718,6.214402001,6.167292279,6.115190997,6.082993435,5.97171116,5.950917162,5.895462332,5.840625195,5.780358862,5.741531729,5.704692716,5.652068771,5.599557362,5.568125039,5.571218506,5.536620194,5.497608003,5.432105033,5.402173179,5.330645827,5.288125039,5.249718037,5.207824945,5.164331354,5.118949672,5.071014692,5.021374179,4.97686527,4.931306033,4.895782432,4.857457956,4.817520475,4.77068834,4.726904658,4.692753986,4.653066583,4.610185683,4.570748359,4.532113786,4.490745858,4.451323539,4.41433448,4.379343545,4.350234448,4.323803689,4.297935605,4.267946233,4.259386058,4.237446702,4.22566302,4.203095967,4.179861207,4.154773367,4.13270397,4.113077837,4.102712098,4.11523351,4.138630822,4.150119412,4.120435136,4.117254142,4.125749297,4.094572054,4.140153798,4.138670835,4.071869959,4.037239137,4.068016255,4.096272585,4.063609878,4.024905283,4.023694905,4.042443264,4.028636449,4.021851829,4.051293529,4.081940606,4.085846827,4.07369553,4.096132541,4.121948109,4.183212254,4.199249766,4.171266021,4.173746796,4.210338231,4.262799625,4.276668959,4.321180369,4.428931541,4.484306346,4.542569553,4.59356799,4.63366552,4.599152235,4.535414817,4.610513285,4.625290403,4.546535792,4.636904033,4.714585808,4.746290716,4.811826196,4.876083776,4.800502657,4.564758987,4.347418568,4.360087527,4.249067834,4.26233698,4.156438887,4.038587058,3.778788371,3.642585808,3.671947484,3.653289153,3.511044701,3.366066896,3.291030947,3.268753986,3.150454517,3.143439825,3.134824633,3.078844639,3.134001876,3.186853392,3.401515474,3.355271022,3.413674273,3.635170991,3.804593936
3.651736168,3.685114098,3.731381057,3.790659581,3.823974992,3.867751172,3.891145983,3.919734917,3.946610816,3.998614567,4.025903095,4.085506721,4.135792435,4.162603314,4.228573929,4.267631135,4.300568928,4.3408015,4.381981869,4.421746796,4.530888403,4.568822757,4.584950297,4.601007815,4.635088465,4.674925914,4.756176305,4.813526727,4.882398249,4.959824945,5.023667396,5.123058456,5.16950297,5.243933729,5.372954048,5.42889653,5.52227321,5.755068459,5.855352298,5.721565489,5.693356674,5.724253829,5.801157862,5.884393873,5.973821819,6.052486402,6.142059394,6.208452641,6.255857455,6.315473585,6.427848703,6.528500156,6.587921225,6.700726477,6.807702407,6.922950922,7.027738668,7.130968428,7.153978118,7.191559862,7.240205064,7.269161613,7.41436949,7.428621444,7.420386371,7.468146296,7.440275086,7.412053767,7.479557362,7.608337606,7.678091904,7.666355736,7.609730541,7.508571429,7.499105971,7.506788371,7.597331666,7.592210066,7.561585495,7.581646765,7.590537043,7.613779306,7.649270397,7.669674273,7.645074086,7.584952798,7.649985621,7.735177243,7.880982807,8.090053142,8.006179431,7.879762426,7.866638324,7.880067521,7.782116912,7.587185996,7.415209753,7.312680213,7.225975617,7.103224758,6.973214129,6.891993748,6.804971554,6.77651266,6.655909972,6.631462332,6.649693029,6.604443889,6.580016255,6.548193811,6.513843076,6.479244764,6.483783682,6.456022507,6.445349172,6.430149422,6.394843389,6.350707096,6.306070647,6.293789309,6.224240075,6.194670835,6.102504533,6.05990372,6.012438887,5.955726164,5.882608315,5.832755236,5.791507346,5.728835261,5.683663645,5.66275211,5.638667083,5.608392623,5.569960613,5.506050641,5.471014692,5.447582369,5.372068771,5.324516411,5.279809941,5.234198187,5.183792435,5.138010628,5.089095342,5.042140669,4.996176305,4.959472335,4.91548859,4.868111285,4.823869959,4.787311035,4.753975617,4.711637387,4.666895905,4.628984058,4.589846827,4.552035011,4.510384495,4.469589247,4.433030322,4.396516411,4.363058456,4.335977493,4.312232573,4.295172241,4.286319475,4.25833573,4.246639575,4.225477962,4.196021257,4.168487652,4.146460769,4.136997812,4.159599875,4.184857768,4.20243326,4.19907221,4.165954361,4.165831822,4.15670397,4.148596436,4.193285402,4.169895592,4.087354798,4.075676149,4.104295092,4.139288528,4.104125039,4.071549859,4.050995936,4.062449515,4.065027821,4.060508909,4.077479212,4.115333542,4.133009065,4.1164814,4.125274148,4.180243826,4.238664583,4.252854017,4.236819006,4.21513473,4.228621444,4.302564551,4.373361676,4.41795311,4.488167552,4.587763676,4.687209753,4.755781182,4.803003439,4.730020631,4.671344795,4.721367927,4.78092654,4.701211629,4.734902157,4.848982807,4.942074398,4.990091904,5.044306346,4.980203814,4.685834323,4.666690841,4.582364489,4.557186621,4.552930291,4.328022507,4.022909659,3.849615505,3.911077212,3.933619256,3.822381994,3.638462019,3.54579306,3.522053142,3.435593623,3.308411379,3.305372929,3.202998437,3.254447015,3.40627196,3.453704283,3.591749922,3.584762738,3.631422319,3.701341669,3.846159425
3.673883088,3.719044701,3.742542044,3.790537043,3.821411691,3.863102219,3.905648015,3.934309472,3.964773992,3.988293842,4.046874648,4.10774367,4.123886214,4.144920288,4.212854017,4.275448578,4.314008128,4.345042826,4.403688653,4.444806502,4.524051266,4.563175992,4.578455767,4.597069084,4.630877149,4.704522663,4.780301344,4.849948109,4.888917787,4.965784308,5.048115036,5.093691779,5.144472648,5.224917787,5.339248515,5.393430447,5.560880275,5.779150985,5.806269459,5.715908721,5.702189434,5.748804001,5.809815567,5.889547984,5.982281963,6.085546733,6.187913723,6.239994998,6.284048765,6.332388872,6.40489653,6.555588621,6.67849453,6.744637699,6.861584245,7.012328853,7.217623007,7.360035011,7.337955611,7.265232885,7.280912785,7.331988746,7.588178806,7.667253517,7.589114098,7.577743045,7.598116912,7.551749922,7.569530478,7.655527352,7.808327602,7.803836199,7.70457518,7.616655205,7.61264145,7.633242888,7.670959675,7.696562676,7.70857643,7.720162551,7.748391372,7.790499531,7.817070334,7.841748046,7.850895905,7.831972491,7.882745858,7.975804939,8.082318224,8.294957174,8.333649265,8.188051266,8.152315098,8.019293529,7.715548609,7.577395436,7.514408253,7.42966427,7.31791935,7.211268521,7.104552673,6.994370741,6.951439825,6.855147234,6.756441388,6.753242888,6.785100344,6.701194123,6.708951547,6.66166427,6.583514848,6.606149422,6.563988746,6.544810253,6.53996874,6.516626446,6.455969991,6.405291654,6.388123789,6.351147234,6.28950297,6.215534855,6.186235699,6.138683339,6.074385746,6.002798374,5.945773054,5.865322913,5.799959987,5.766557049,5.738010628,5.715243514,5.678139419,5.625207877,5.573111597,5.533851829,5.508343857,5.462064395,5.405869334,5.356258831,5.302772116,5.249933104,5.203416068,5.152482651,5.107288528,5.069124101,5.021774304,4.973396686,4.930558299,4.888027509,4.849127852,4.817417943,4.777830572,4.734594561,4.692461394,4.653241638,4.61302407,4.569778056,4.530185683,4.488937793,4.44844764,4.414396999,4.378185683,4.351662394,4.331013442,4.320122538,4.308788997,4.286034386,4.272152548,4.241780556,4.210718349,4.182311972,4.179631135,4.209615505,4.250535792,4.264652704,4.264857768,4.242025633,4.210738356,4.211906221,4.193217881,4.219178493,4.236578931,4.180138793,4.106615817,4.112547671,4.149694279,4.179653642,4.138835886,4.125076586,4.098870897,4.086151922,4.108193811,4.092091279,4.115085964,4.149126602,4.183189747,4.178798374,4.185740544,4.19539106,4.229466708,4.284616443,4.332761488,4.273895592,4.243170991,4.310729603,4.391179744,4.474990935,4.550026883,4.659341044,4.780426383,4.877936855,4.923641138,4.90707096,4.832240075,4.809820569,4.933641763,4.87891216,4.88451141,5.040322601,5.153130353,5.194128165,5.197114098,5.114833385,4.959032198,4.879654892,4.754775867,4.649162863,4.599069709,4.423202251,4.202423257,4.078104408,4.082225696,4.009447952,3.976965302,3.875035949,3.710727102,3.731063457,3.59868709,3.492183807,3.371098468,3.370768365,3.425625508,3.565821819,3.700131291,3.772083776,3.634423257,3.618203188,3.602643326,3.833482963
3.679389809,3.698205689,3.725444201,3.750567052,3.790869647,3.840747734,3.882195686,3.894704595,3.95235261,4.021921851,4.032230072,4.056207565,4.088197562,4.144250078,4.197309159,4.250183182,4.305938106,4.362323226,4.402318224,4.463217255,4.53513473,4.574704595,4.584982807,4.611020944,4.643253517,4.689002813,4.784612691,4.862229447,4.943449828,4.972849015,5.023804939,5.084836511,5.176220069,5.252483901,5.305940606,5.402565802,5.504042513,5.679729916,5.687357299,5.656035011,5.699848703,5.755581119,5.820026258,5.906200688,6.017532979,6.124696468,6.201585495,6.273192873,6.31791935,6.355336043,6.421831822,6.538325727,6.661064083,6.813016568,6.952327602,7.068048765,7.305332917,7.432170053,7.438812129,7.350612066,7.391412316,7.470902157,7.596073773,7.810830885,7.735792435,7.699266021,7.78598312,7.706820882,7.685404189,7.733041575,7.810660832,7.840737731,7.785718037,7.726952173,7.723381057,7.767434823,7.745758049,7.79708909,7.852336355,7.915908721,7.921180369,7.931180994,7.981379181,7.97967865,7.992612691,8.07750422,8.128440138,8.225382932,8.280745233,8.475686152,8.609577993,8.420593936,8.178808378,7.914440763,7.72176055,7.701366677,7.641628009,7.537963113,7.403213504,7.304520163,7.211883714,7.141991872,7.022512035,6.905017818,6.919534855,6.881833073,6.865237887,6.820859018,6.825500469,6.768845264,6.698475774,6.725829322,6.64681713,6.653399187,6.633260394,6.586298218,6.521072835,6.472380119,6.456107534,6.403183495,6.320570178,6.290508284,6.24438387,6.17875336,6.135074711,6.079492341,5.975709909,5.892048765,5.853571741,5.819673648,5.77673523,5.738983432,5.687319787,5.62707346,5.607672398,5.570010628,5.531813692,5.479962488,5.426520788,5.375062207,5.325974367,5.269451704,5.223682401,5.186705846,5.146063145,5.098150672,5.051848703,5.007824945,4.968147546,4.925161613,4.888780244,4.846442013,4.807474836,4.764966552,4.72169553,4.679779931,4.634305721,4.590404501,4.54863895,4.505465458,4.464235073,4.434763364,4.400772741,4.369985621,4.351464833,4.345843076,4.329883088,4.307993748,4.295162238,4.269354173,4.224490153,4.224380119,4.256770241,4.305442951,4.34489528,4.344857768,4.323528603,4.290570803,4.257322913,4.266183182,4.253161613,4.28156799,4.257005314,4.175077212,4.144045014,4.152757737,4.196786496,4.211115974,4.195531103,4.192837762,4.141716786,4.131411066,4.150894655,4.152820256,4.14265708,4.183179744,4.220443889,4.249222882,4.261609253,4.270744608,4.293924351,4.317769303,4.383194748,4.382384495,4.284241325,4.315353548,4.430146921,4.503984995,4.6060794,4.694281963,4.782091904,4.919604877,5.040777743,5.061381682,5.009485464,4.98771116,5.057425445,5.062779619,5.069099093,5.202648328,5.255517349,5.152387621,5.034830885,5.008042513,4.926299469,4.676361363,4.479762426,4.366872148,4.389171616,4.377122851,4.173496718,3.867556111,3.840057518,3.738260706,3.797219131,3.826020631,3.798829634,3.811638637,3.672642701,3.535907471,3.507943732,3.567347296,3.595123476,3.668113786,3.765839325,3.573066583,3.40214317,3.306793373,3.483093467,3.727169741
3.661956862,3.683063457,3.705973117,3.741544233,3.768327602,3.813069084,3.849603001,3.878839637,3.934802126,3.99430322,4.014236949,4.036891529,4.07302282,4.148814004,4.198061894,4.230279462,4.279069709,4.324879025,4.359302282,4.417000313,4.517804314,4.548088778,4.57500719,4.60627196,4.658725852,4.722915911,4.79587121,4.897587996,4.958482026,5.007354798,5.027438575,5.112685214,5.1990397,5.257037824,5.312782745,5.388681463,5.47046452,5.530228196,5.580251329,5.630759612,5.704030009,5.76124789,5.819493592,5.909361676,6.0102407,6.126474523,6.197066583,6.291503595,6.328777743,6.376420131,6.450708346,6.538630822,6.704627696,6.81987121,6.960035011,7.075241013,7.225597999,7.387078462,7.336520163,7.381776805,7.501571741,7.616365114,7.727887465,7.865232885,7.923801188,7.874068146,7.927897468,7.83587121,7.808205064,7.832135042,7.885654267,7.887867459,7.890900907,7.872250078,7.867496093,7.927172241,7.899301032,7.915138481,7.992252579,8.067703657,8.084051266,8.089843076,8.114325727,8.131846202,8.168790247,8.263169741,8.358812129,8.495939981,8.555303532,8.687052204,8.630179431,8.363461082,8.128275086,7.973764301,7.878867146,7.852133792,7.763253517,7.609455455,7.518732104,7.419918725,7.33750547,7.240527665,7.090158174,7.092498906,7.094704595,7.023352298,7.000055017,6.967877462,6.926469522,6.89641513,6.84303845,6.799812441,6.794373242,6.759304783,6.705547984,6.650028134,6.585360425,6.548773992,6.496652704,6.407022194,6.372263832,6.347973742,6.292633948,6.258658331,6.193527977,6.08915286,5.989174117,5.935682401,5.885476711,5.838534542,5.794768365,5.743497343,5.695852454,5.681397937,5.672145045,5.60377618,5.550844639,5.49753548,5.450105658,5.40150547,5.34822382,5.31363301,5.273585495,5.228939043,5.186575805,5.138460769,5.089913098,5.051813692,5.007437324,4.959124726,4.919062207,4.87913723,4.836866521,4.791509847,4.744780244,4.694604564,4.648912785,4.606947171,4.566146921,4.526737105,4.492516411,4.456520163,4.423307284,4.39427071,4.379291028,4.372431385,4.349186621,4.338735855,4.336272585,4.317166615,4.268656455,4.312717724,4.354450766,4.404538918,4.436261332,4.414547046,4.364773992,4.327427321,4.326547046,4.330523289,4.315896218,4.317954361,4.258785871,4.19683151,4.184445139,4.192580181,4.224757737,4.253111597,4.265122851,4.238809628,4.186613317,4.175157237,4.20531166,4.245139106,4.204799,4.206469522,4.257142857,4.31529603,4.381424195,4.405761801,4.416562676,4.462121913,4.465142857,4.514233198,4.412954048,4.332411379,4.46473523,4.598106908,4.727402313,4.823889966,4.928152548,5.043110972,5.142757112,5.184185058,5.130930916,5.147241013,5.182597062,5.176102532,5.216165052,5.26764864,5.177693029,4.892271335,4.684854017,4.639942482,4.686066896,4.534396999,4.260791497,4.08131041,4.144732729,4.152962801,4.03030447,3.714873398,3.500163801,3.428573929,3.488730228,3.514190685,3.586183182,3.702637074,3.59446327,3.44009753,3.312972804,3.461101594,3.54982432,3.497570491,3.624105033,3.360650203,3.158549547,3.132741482,3.38940669,3.706053142
3.639782432,3.668871522,3.70659081,3.739436074,3.77395186,3.820156299,3.842195686,3.872995311,3.951339794,3.977770553,4.007547359,3.993435449,4.04179056,4.11347046,4.206156924,4.229709284,4.29497718,4.321245389,4.359609878,4.396733979,4.469836824,4.519237262,4.547636136,4.591387309,4.640880275,4.757324164,4.824232573,4.885649265,4.93827071,5.01881588,5.073037824,5.134279462,5.191279775,5.251278525,5.311994998,5.363766177,5.43894467,5.497628009,5.545730541,5.610523289,5.683095967,5.74739356,5.810338231,5.917936855,6.049240388,6.164834011,6.234613317,6.314755861,6.365474211,6.420026258,6.491005939,6.584067521,6.706898406,6.851911222,6.976650203,7.084648953,7.174331979,7.223869959,7.2608015,7.415089716,7.627906221,7.777097843,7.908603939,7.911509847,8.077194123,8.100741482,8.063304783,7.992410128,7.906145671,7.938455767,7.979418568,7.983219756,8.050173179,8.092839012,8.029999375,8.11020944,8.07772929,8.040337606,8.111824945,8.215272273,8.286582057,8.286374492,8.25795311,8.269741794,8.326226946,8.432745233,8.523201,8.697127852,8.856345108,8.893379181,8.633795561,8.360562676,8.205389184,8.100806502,8.015079712,7.990442013,7.822604564,7.705350422,7.647259769,7.558427008,7.4524789,7.278341982,7.312147546,7.284501407,7.244516411,7.181521726,7.157544233,7.072445139,7.05926352,7.027508596,6.960812754,6.901516724,6.896147546,6.822994686,6.765774304,6.699793686,6.645809315,6.591509847,6.524211316,6.497913098,6.45747296,6.405389184,6.3756799,6.333139106,6.181571741,6.060148796,6.008887777,5.965396686,5.942637074,5.908091279,5.865625508,5.823347296,5.753560488,5.751912473,5.702159425,5.639319787,5.58518537,5.5379206,5.486186933,5.433688028,5.396856518,5.365259143,5.313795561,5.272432635,5.233688028,5.186660832,5.133634261,5.083188496,5.033860581,4.994115661,4.951299781,4.904537668,4.859716161,4.812916536,4.764421382,4.714725852,4.671202251,4.628816505,4.588346358,4.553165364,4.514763364,4.474863395,4.443018443,4.421006565,4.411778681,4.393718037,4.370053142,4.377317912,4.387486089,4.339138481,4.338920913,4.401838074,4.452753986,4.487997499,4.504795249,4.472915286,4.417788059,4.374962176,4.39993498,4.399797437,4.372628947,4.32604689,4.253424195,4.245579244,4.218038137,4.235411066,4.256845264,4.291806189,4.307598625,4.254249453,4.238179431,4.238919662,4.26793623,4.301966865,4.291596124,4.224852766,4.261731791,4.32601688,4.433853079,4.50006377,4.526794623,4.56739231,4.580313848,4.630091904,4.556196311,4.40451141,4.458738356,4.642415755,4.779658643,4.901946858,5.024265083,5.134487027,5.234058143,5.265432948,5.217818068,5.225890591,5.211956236,5.175994998,5.197739294,5.182281963,4.980376368,4.704502657,4.405424195,4.279594873,4.38892904,4.342196937,4.168370116,3.890075649,3.869806815,3.92304095,3.8355211,3.571458581,3.283788684,3.23094467,3.231242263,3.275316036,3.49734542,3.523693654,3.303164739,3.255409816,3.134181932,3.36678462,3.304802751,3.2467196,3.406116912,3.280592685,3.057287902,3.061721788,3.34089653,3.545615505
3.603858706,3.61788809,3.660809003,3.719122226,3.773914348,3.830289465,3.850793373,3.896692716,3.931251016,3.931473585,3.948849015,3.965781807,4.038989684,4.114243201,4.203463582,4.217575492,4.289427946,4.306703345,4.326947171,4.372866521,4.42188934,4.474938418,4.527087215,4.572751485,4.630246952,4.740376368,4.813591747,4.888260081,4.951607377,5.021029072,5.082665833,5.135472335,5.185537981,5.23820694,5.285684276,5.333174117,5.401477962,5.476616443,5.535567365,5.601560488,5.664375117,5.746428259,5.847694905,5.960452641,6.094119412,6.188541419,6.252666458,6.335437324,6.391599875,6.43740919,6.501544233,6.615122226,6.738650828,6.866850891,6.976825258,7.082805877,7.178923414,7.242983432,7.286842138,7.464597687,7.730843389,7.875638637,7.910131916,7.973839325,8.096722726,8.241870585,8.235108471,8.129205377,8.019418568,8.062457018,8.088267584,8.119147234,8.215699906,8.252026258,8.231364802,8.256990309,8.2233598,8.168070022,8.236553923,8.346843389,8.431009691,8.491788684,8.453639262,8.445369178,8.506418256,8.603736168,8.663797437,8.806509534,8.971938731,9.052421382,8.795768678,8.488140044,8.337350422,8.248620194,8.169683026,8.069041575,7.98502282,7.866663332,7.766772116,7.673708034,7.49817568,7.505400438,7.487119725,7.468071272,7.362280713,7.353995624,7.310647077,7.223917474,7.208172554,7.135749922,7.025437949,7.024342607,6.950462019,6.884966552,6.823522351,6.763986246,6.689335417,6.628068771,6.608010003,6.57286402,6.550514536,6.537157862,6.466288215,6.331941232,6.204461394,6.12176055,6.054309472,6.025928103,6.005221632,5.986470772,5.945928103,5.873605502,5.815204751,5.788986558,5.736252579,5.678402001,5.624597687,5.578728353,5.522613317,5.475621132,5.45257643,5.414547046,5.372331354,5.323158487,5.273487965,5.216867771,5.156799,5.114318224,5.07532854,5.022949672,4.975402313,4.928612691,4.881780556,4.833755549,4.786373242,4.73929603,4.694674586,4.650093154,4.614519537,4.575024695,4.532226321,4.490135667,4.465382932,4.447939981,4.437354173,4.413156611,4.389901844,4.431729916,4.436328853,4.352005002,4.414897155,4.485996874,4.541209128,4.575559862,4.563388559,4.502442013,4.450235699,4.462459519,4.476751485,4.454717099,4.396753986,4.32057518,4.304442638,4.288625195,4.252426383,4.277096593,4.289222882,4.305262895,4.323851204,4.284658956,4.318499531,4.320887777,4.339120975,4.377898093,4.364291341,4.306030635,4.299366052,4.312842763,4.397734292,4.509436699,4.564133792,4.604358862,4.659856205,4.716721475,4.672335105,4.556824008,4.464487652,4.586008128,4.740271335,4.868556424,5.028381369,5.172066271,5.28259081,5.294964676,5.180701469,5.082678337,5.030747108,4.903162238,4.933531729,4.936170053,4.663129728,4.457130353,4.168077524,3.941751797,4.046321976,3.985788059,3.977370428,3.78214442,3.602195686,3.702351985,3.723195999,3.505255392,3.221156611,3.040552673,3.070949672,3.293989372,3.425613004,3.315018443,3.134396999,3.033047827,3.013549234,3.249060331,3.110194436,3.026670835,3.202345733,3.03081463,2.950957174,2.897885589,3.159849953,3.309581744
3.552627696,3.563050953,3.644468897,3.716076274,3.78060644,3.835831197,3.850440763,3.856692716,3.869364176,3.887699906,3.916693967,3.960232573,4.007207252,4.07183995,4.154075649,4.168775242,4.213991872,4.254126915,4.295139731,4.337895592,4.394513285,4.453231635,4.497547984,4.561778056,4.622807127,4.701941857,4.803336043,4.894054392,4.985295405,5.035896218,5.088432635,5.149481713,5.198066896,5.245521726,5.308371366,5.356066271,5.418138168,5.494837137,5.564648953,5.630126915,5.697683026,5.772658956,5.90377743,6.017367927,6.120560175,6.212451391,6.273300406,6.352980306,6.414519537,6.449595499,6.502039387,6.591522351,6.733444201,6.875821194,6.975422319,7.080270084,7.167524852,7.267033448,7.334697093,7.477309159,7.739878712,7.920265083,7.934749609,7.976900281,8.102929666,8.261591747,8.347351047,8.276531416,8.158699594,8.166599562,8.204123789,8.242713348,8.293029072,8.341334167,8.37907096,8.388881525,8.370748359,8.32460644,8.366339481,8.44579181,8.513207877,8.625995624,8.63379306,8.634070647,8.680910284,8.76182557,8.826588309,8.920775242,9.041027821,9.118824633,8.916353861,8.605041575,8.490868396,8.423119725,8.321250391,8.23244764,8.122283214,7.95910472,7.871217255,7.767947484,7.669744295,7.719309784,7.650125664,7.605619256,7.537935605,7.508236324,7.432162551,7.388726477,7.337065333,7.194063145,7.164273836,7.118919662,7.030859644,6.959127227,6.893784308,6.80460644,6.737587996,6.688002501,6.696685214,6.654577055,6.602900907,6.508108784,6.38921663,6.284986558,6.226748359,6.15503845,6.11919975,6.10377493,6.091941232,6.088107534,6.007529853,5.908476399,5.869079087,5.838537043,5.787826196,5.738265708,5.687309784,5.628628947,5.575714911,5.534724601,5.508313848,5.463159737,5.411853704,5.350294467,5.290580807,5.230324476,5.190754611,5.146130666,5.098013129,5.051063457,5.003451078,4.954205689,4.904392623,4.854502032,4.80572929,4.75881463,4.715023445,4.675758675,4.637851829,4.604894029,4.549419193,4.51052954,4.494129415,4.479432323,4.468253829,4.448817756,4.424157549,4.478091904,4.443993748,4.407719912,4.496035011,4.579758675,4.623914973,4.643781182,4.587878712,4.535192248,4.520360113,4.54633573,4.54627071,4.495362301,4.405136605,4.362820882,4.369863082,4.332388872,4.294757112,4.322278212,4.335579869,4.346830885,4.342507033,4.355481088,4.387763676,4.397106596,4.426955924,4.469564239,4.470502032,4.414882151,4.366301969,4.352995311,4.405179118,4.466643326,4.512432635,4.560412629,4.650683339,4.737125352,4.756281338,4.704042513,4.612428884,4.565769303,4.664622695,4.781579244,4.983152235,5.148728978,5.225020319,5.180839012,5.016785245,4.832565177,4.80419131,4.613519225,4.641377931,4.704760238,4.447372304,4.242215692,4.076203814,3.744632698,3.711224758,3.722713348,3.692271335,3.639719912,3.446409503,3.471117224,3.574899656,3.43913723,3.187213504,2.944022507,3.021394186,3.096490153,3.288297593,3.126269459,3.038774617,2.835283526,2.933516724,3.114023132,3.050500781,2.844698968,3.005681776,2.91270272,2.7030397,2.837499219,2.906170678,3.090645827
3.535114723,3.600695217,3.697032823,3.736045014,3.752405127,3.788741482,3.812956549,3.837556736,3.869651766,3.888462645,3.909134104,3.942396999,3.981469209,4.051971241,4.085009065,4.111092216,4.185460456,4.236373867,4.276856518,4.332196311,4.388713973,4.430099406,4.479004689,4.548013754,4.61609753,4.704592685,4.825050328,4.917699281,4.988989059,5.051893717,5.095959987,5.149806815,5.205574242,5.257848078,5.341304158,5.398597062,5.446229447,5.489570491,5.568220069,5.645424195,5.724631447,5.806907158,5.916643951,6.055642388,6.157094092,6.231719912,6.297800563,6.361948109,6.424047515,6.483738668,6.519619881,6.586643326,6.735599875,6.879042201,7.001537981,7.083523601,7.185933104,7.279717412,7.400332604,7.545462957,7.727304783,7.902244451,7.971065958,8.045019068,8.115536105,8.288605189,8.462697093,8.43945483,8.329815567,8.285521726,8.324553923,8.346288215,8.402105658,8.45158362,8.486276962,8.526039387,8.536707721,8.476151297,8.482010628,8.566106908,8.649522976,8.736902782,8.793060331,8.833200375,8.86307221,8.927809941,8.98287965,9.04854517,9.134614567,9.149441701,8.984940294,8.752407627,8.667961238,8.585988121,8.517159112,8.408177555,8.252746483,8.102539544,8.007462332,7.852824008,7.922343232,7.901141607,7.833160363,7.749036574,7.720582682,7.664887777,7.58745608,7.539893717,7.411816193,7.314418256,7.274325727,7.185097843,7.101774304,7.03663895,6.965166615,6.873132854,6.767292279,6.784195061,6.739346046,6.687109722,6.601265395,6.505362926,6.386530791,6.299561113,6.236636449,6.224582682,6.183824945,6.16188809,6.187591122,6.169130353,6.052526415,5.969885589,5.944467646,5.889592998,5.851721163,5.801778056,5.762135667,5.698503282,5.63500844,5.593745545,5.542096905,5.480517662,5.420456393,5.353903095,5.307558612,5.269384183,5.22441513,5.174326977,5.124859018,5.077251641,5.026103157,4.975377305,4.926457018,4.878572054,4.830952173,4.784442638,4.740886527,4.701091591,4.669099093,4.636561425,4.584445139,4.539876211,4.52291341,4.512282588,4.501169115,4.474393248,4.449000313,4.489525477,4.474843389,4.506050641,4.58611316,4.658755861,4.703942482,4.699158487,4.637959362,4.609245389,4.587613629,4.611996249,4.58675086,4.508453892,4.431097218,4.45465458,4.427788684,4.356881525,4.344115036,4.367209753,4.388233823,4.394200688,4.380621444,4.412296343,4.455732416,4.48396874,4.5257593,4.570265708,4.591174742,4.536582682,4.435661144,4.417940606,4.425047827,4.499561113,4.546548296,4.601580494,4.689778056,4.776067521,4.861154111,4.853041575,4.769017818,4.701741794,4.821739294,4.91059206,5.006251954,5.120790247,5.081392935,4.988711472,4.836061269,4.650870897,4.563761175,4.387271022,4.379153485,4.521187871,4.414114411,4.091501094,3.880010003,3.654484526,3.451511097,3.43491341,3.369180369,3.41907346,3.371378556,3.256452641,3.373784308,3.402030635,3.1964814,2.924173804,2.850218193,2.985397937,3.224325102,3.106828384,2.868446389,2.734492029,2.785905595,2.945452954,3.059821194,2.806857143,2.789539231,2.798927165,2.578085652,2.695919975,2.900658956,2.994950922
3.551532354,3.595020944,3.673210378,3.727822445,3.776157549,3.799009691,3.816600188,3.850040638,3.889968115,3.911929978,3.935092216,3.959127227,3.991762426,4.03475336,4.071779931,4.112272585,4.171898718,4.218038137,4.254274461,4.334069397,4.377180369,4.41555236,4.468951547,4.520402626,4.594040638,4.706040638,4.823694905,4.923981244,4.998722101,5.051851204,5.092178806,5.132336355,5.202425758,5.261844326,5.328117537,5.396426383,5.473908096,5.544715224,5.611813692,5.681638012,5.757096593,5.822952173,5.913205377,6.139541107,6.242073148,6.246927165,6.308331354,6.38102407,6.433267896,6.500246327,6.562198187,6.626085652,6.756356361,6.888172554,6.997281651,7.091788684,7.210108159,7.332598937,7.482403251,7.646512035,7.810058143,7.910864645,7.994280713,8.074443264,8.234588309,8.413539231,8.56147296,8.562263207,8.46124664,8.41276899,8.436206314,8.461564239,8.52284839,8.577357924,8.614291966,8.649673023,8.660628947,8.617582995,8.61555236,8.674658331,8.772851516,8.859211003,8.935379806,9.005851829,9.068498906,9.112470147,9.169770553,9.230907158,9.281878087,9.255632385,9.101481713,8.956303845,8.852388872,8.774607065,8.677859331,8.550234448,8.412233823,8.252601438,8.16655955,8.054166927,8.175414817,8.09731291,8.009220381,7.940666458,7.891288528,7.803888715,7.767017193,7.671472335,7.500018756,7.434963426,7.353030322,7.273620506,7.190717099,7.104550172,7.036266333,6.935434823,6.842905908,6.871162238,6.774101907,6.709844326,6.663757424,6.553943107,6.426525789,6.418828384,6.316168803,6.272517662,6.233255392,6.227486089,6.292303845,6.215222257,6.111674898,6.041437949,5.981421694,5.946420756,5.906420756,5.861464208,5.815909972,5.761042826,5.695954986,5.636426383,5.565426696,5.494757112,5.42953673,5.38032135,5.346000625,5.308301344,5.255284776,5.202738356,5.1558412,5.102226946,5.052651454,4.999952485,4.952397624,4.901446702,4.852741482,4.811923726,4.76617443,4.731281025,4.701389184,4.66319975,4.612141294,4.57577743,4.557446702,4.543259769,4.534632073,4.528525164,4.496302595,4.478454517,4.539881213,4.595636136,4.666540794,4.730423257,4.764501407,4.756999062,4.725519225,4.664055017,4.652396374,4.654734605,4.596986558,4.493931854,4.50988684,4.527829947,4.476363864,4.404211316,4.372381369,4.396451391,4.419195999,4.43705658,4.430454517,4.466618318,4.523483589,4.577257893,4.638344483,4.676341357,4.706120663,4.647969991,4.519342294,4.489205377,4.481720538,4.561635511,4.641645514,4.731363551,4.838139419,4.940408878,5.012698968,5.029431697,4.957609253,4.923371053,5.03884714,5.076663957,5.056857768,4.952592685,4.739125977,4.673710535,4.616715224,4.404338856,4.289272898,4.189284151,4.125176618,4.294877149,4.382341982,4.159637387,3.850213192,3.567722413,3.398782119,3.269581744,3.15961738,3.163933729,3.321585495,3.160307596,3.101579244,3.243145983,3.17459206,2.911069709,2.753132854,2.940698968,3.14201688,3.092013754,2.903634886,2.65017568,2.680610191,2.945698031,3.013391685,2.750054392,2.586613317,2.59852704,2.494251954,2.673072835,2.750949672,2.898235699
3.579120975,3.613221632,3.668386371,3.747843701,3.788829009,3.800375117,3.807067209,3.855812441,3.887027196,3.905700531,3.9289603,3.952685214,3.990071897,4.017102845,4.04899281,4.089367927,4.155326039,4.212849015,4.268311347,4.350937168,4.403671147,4.434295717,4.481147859,4.526427008,4.606807127,4.712180056,4.816775242,4.916423882,4.972491404,5.000982807,5.042358237,5.104365114,5.176472648,5.222712098,5.300423882,5.38185683,5.454224445,5.534789622,5.623404814,5.690100656,5.757266646,5.853404189,5.957359175,6.13744045,6.218035636,6.264722726,6.32623945,6.387476086,6.44220819,6.499578618,6.584042513,6.663654892,6.803516099,6.940473898,7.034810878,7.128092529,7.256915286,7.399912473,7.573606752,7.729427946,7.862987183,7.949001563,8.032410128,8.104355111,8.297132854,8.540949047,8.682635824,8.637904345,8.540548922,8.542602063,8.539671147,8.554768365,8.615857455,8.69798312,8.74800125,8.780643951,8.7776005,8.767349797,8.774234448,8.816605189,8.910279462,9.003778681,9.07081463,9.170980932,9.251868709,9.307000938,9.353252892,9.39756674,9.42031885,9.393457956,9.301636761,9.161845577,9.054341982,8.95017443,8.8364814,8.706220694,8.496112535,8.391342294,8.338765864,8.270652079,8.402863395,8.28719975,8.215639887,8.136812754,8.047079712,7.974852141,7.89494467,7.72208065,7.632837762,7.544047515,7.430924664,7.334637074,7.232195061,7.145660519,7.14748859,7.000867771,7.000752735,6.940276336,6.836091279,6.779843701,6.656290091,6.589634261,6.593725539,6.484751485,6.374539544,6.310184433,6.289963113,6.306825883,6.36060769,6.269526727,6.131546108,6.076226321,6.023244764,5.996146296,5.963706158,5.917704283,5.861514223,5.800220069,5.746853392,5.674345733,5.590131916,5.523466083,5.470799625,5.434238199,5.385530478,5.334457018,5.286161926,5.2310397,5.182447015,5.131098468,5.080532666,5.026245702,4.973464208,4.92476899,4.875506096,4.832012504,4.792470147,4.755516099,4.717046577,4.671482338,4.63408065,4.60793498,4.590702094,4.574632073,4.591924977,4.605051579,4.546203188,4.491088465,4.569297906,4.648942795,4.728370116,4.792587684,4.830554548,4.823302282,4.784830259,4.732253829,4.707848703,4.67523101,4.596758987,4.524188809,4.583122226,4.578698343,4.50012879,4.420231322,4.335862457,4.35587121,4.428728978,4.456475148,4.485779306,4.522615817,4.595098468,4.662634573,4.748033761,4.799654892,4.817437949,4.736677712,4.60902532,4.566634573,4.561520475,4.611608628,4.687277274,4.818380744,4.963491091,5.075381057,5.174949672,5.208997812,5.173926852,5.152530166,5.163536105,5.166236949,5.048285089,4.777490466,4.4947196,4.303427321,4.309991872,4.160847765,3.983594873,3.994178181,3.913893092,4.118191935,4.314480775,4.240305095,4.009592998,3.837014067,3.674738356,3.514620819,3.306095655,3.052561425,3.061699281,3.170033135,2.993913098,3.001958112,3.080037512,2.94582557,2.704402626,2.789754298,2.9996799,2.915276024,2.797266646,2.590264458,2.612143795,2.914685839,3.04979056,2.859396061,2.683170991,2.518161926,2.372861519,2.490200688,2.583187246,2.815227259
3.564931541,3.597299156,3.64291091,3.709831822,3.752477649,3.788201313,3.798186933,3.824327602,3.89075336,3.914265708,3.924503907,3.942371991,3.965961863,3.995193498,4.038577055,4.116791497,4.188706471,4.249362926,4.299511097,4.375787434,4.386238199,4.420466396,4.491818693,4.541036574,4.620006252,4.727207252,4.813704283,4.879479837,4.934159425,4.973134104,5.014251954,5.097785558,5.155383557,5.192840263,5.259751172,5.349531729,5.431789934,5.503449828,5.578705846,5.670967177,5.747286027,5.851055955,6.021531729,6.152887777,6.222599562,6.265425445,6.317901844,6.382131916,6.437174117,6.489107846,6.556921538,6.673415442,6.845786808,6.995696155,7.098160675,7.211663645,7.332338856,7.46556799,7.616445139,7.760645202,7.863664895,7.934449515,8.081810566,8.18608065,8.320900281,8.562005627,8.686412004,8.653914348,8.674148171,8.685846827,8.693211629,8.671747421,8.734887152,8.805221632,8.867368553,8.908381369,8.911692404,8.903897468,8.913933104,8.964721475,9.062069397,9.132228822,9.256335105,9.329935605,9.421391685,9.509841826,9.540418881,9.60134542,9.604593936,9.569115349,9.508999062,9.39673648,9.285921851,9.15939231,9.040070022,8.921372929,8.713432948,8.620748984,8.517484214,8.4736005,8.565756799,8.473685527,8.409975617,8.318914661,8.211486089,8.123271022,7.927984995,7.834793373,7.750204439,7.597639262,7.486967177,7.33574242,7.25670272,7.219356049,7.250055642,7.077026571,7.073035324,6.965179118,6.932921538,6.901716786,6.803816193,6.734914661,6.597711785,6.497390435,6.448082526,6.372488903,6.336597687,6.401015317,6.369240388,6.22512035,6.1561588,6.1110397,6.098878399,6.053416693,6.011788684,5.95868959,5.905873085,5.852976555,5.781844326,5.706985933,5.624380119,5.568285089,5.521572992,5.473437949,5.421106596,5.365304158,5.314358237,5.262919662,5.209615505,5.155216005,5.099243514,5.041462957,4.989884339,4.930885902,4.883273523,4.850308221,4.808105033,4.769107846,4.731823695,4.69465458,4.659751172,4.637114098,4.622779619,4.619631135,4.682793373,4.676701469,4.594353235,4.514415755,4.592940294,4.688550172,4.780989059,4.858283214,4.892566427,4.875718662,4.824772741,4.768482651,4.729037824,4.678962176,4.603873711,4.594323226,4.637529228,4.594985933,4.476601438,4.364238825,4.231224758,4.355468584,4.443831197,4.484411379,4.542429509,4.573374179,4.659068459,4.746803376,4.837156611,4.918279462,4.927052204,4.823412316,4.685379181,4.65836824,4.655602376,4.724396374,4.814994686,4.907356049,5.063759925,5.189029072,5.307190997,5.358722101,5.281485464,5.201693029,5.126939669,5.071459831,4.885436699,4.561255392,4.306375742,4.006484526,3.934804626,3.962385746,3.829341669,3.776455142,3.771996249,3.990224445,4.230947171,4.200990309,4.026810878,3.847892466,3.643286027,3.487502344,3.331321038,3.1321588,2.901429197,2.967287277,3.020751485,2.84080025,2.809818068,2.823234761,2.637556736,2.691138481,2.824372616,2.735534855,2.574887152,2.477456705,2.681065333,2.964846515,3.058853392,2.890885902,2.719582369,2.555631135,2.38480025,2.349076586,2.504957799,2.623959987
3.561147859,3.608937793,3.663947484,3.71683151,3.734076899,3.75209503,3.763356049,3.810790872,3.836741482,3.900711472,3.921222882,3.944295092,3.98684839,4.023974992,4.087914973,4.145532979,4.195801188,4.264677712,4.34223945,4.399044701,4.392190059,4.406957174,4.457585495,4.514673335,4.593177868,4.690758362,4.750089403,4.824422632,4.906075649,4.947130978,4.985277899,5.050580807,5.141046577,5.205211629,5.277069084,5.337948109,5.387273523,5.456785245,5.531956236,5.629644264,5.722608315,5.860301344,6.024452641,6.118582057,6.18579056,6.239569866,6.294769616,6.35097718,6.408002501,6.462712098,6.563851204,6.692851516,6.883190997,7.035948734,7.131966239,7.240150047,7.367254767,7.507938731,7.60201563,7.723888715,7.834088153,7.950139419,8.140251329,8.282163176,8.366579556,8.48483151,8.651781182,8.680442638,8.766361988,8.843201,8.823649891,8.779546108,8.838562051,8.908473898,8.9756799,9.044311347,9.062737105,9.073270397,9.079594873,9.144717724,9.208015005,9.289618006,9.409900594,9.504742732,9.616522663,9.73241638,9.756238825,9.822942169,9.835533604,9.778680838,9.715458581,9.64620944,9.527317287,9.378005627,9.282573304,9.184132541,8.962683339,8.808885277,8.692593936,8.670674586,8.707996249,8.653961863,8.559694905,8.487149734,8.380088778,8.183779931,8.010253204,7.95385558,7.791062207,7.69635261,7.510502032,7.430992185,7.382104408,7.413394186,7.279022194,7.182572054,7.111054705,7.087289778,7.109431697,7.063364802,6.935802438,6.770018131,6.633643013,6.548874023,6.488027509,6.423884964,6.426855892,6.414937168,6.309934354,6.254346983,6.210600813,6.182524539,6.158967177,6.107043451,6.051223507,6.000815255,5.959524852,5.890988434,5.816582682,5.744307596,5.66768115,5.607272273,5.556298843,5.504305095,5.449337918,5.395781182,5.34518287,5.286537043,5.226170678,5.16742482,5.107013442,5.053524226,4.994420756,4.941276649,4.903427321,4.865282901,4.827546108,4.789719287,4.751772429,4.715348546,4.68550422,4.668746483,4.648925289,4.698410753,4.762375742,4.736897781,4.639197249,4.539963739,4.621219131,4.722888403,4.829511722,4.911729916,4.937570491,4.903017193,4.827563614,4.752565177,4.697402938,4.671874961,4.62233448,4.653669272,4.667185996,4.565391685,4.403876211,4.231787434,4.163511097,4.353683026,4.462639575,4.531771178,4.578813379,4.644756486,4.723018443,4.821676774,4.916628947,5.009252892,5.015729916,4.883736168,4.799124726,4.780181307,4.816202563,4.897910597,4.983139731,4.984847765,5.144392623,5.27737668,5.40563176,5.337442951,5.085556736,4.923961238,4.83155236,4.723278525,4.673380431,4.591324789,4.332879025,4.017032823,3.697890591,3.726194436,3.684148796,3.642455767,3.675668646,3.917239137,4.163433573,4.167507346,3.988856518,3.749704283,3.493026571,3.294119412,3.156091279,3.04070272,2.901806815,2.772243826,2.88195311,2.941356674,2.790424508,2.669811816,2.579433573,2.526884651,2.719467334,2.606134417,2.397971866,2.541786808,2.768397624,2.938755861,2.986523289,2.924203814,2.77065583,2.580283839,2.383692404,2.277719287,2.388986558,2.423029697
3.549211629,3.589524226,3.664435136,3.690440763,3.687919975,3.719247265,3.750141919,3.782739606,3.80745483,3.852979056,3.886722101,3.934179431,3.998086902,4.074223195,4.100091279,4.145370428,4.19334542,4.250483276,4.322575805,4.392152548,4.416557674,4.441993123,4.4768015,4.520422632,4.577698031,4.645159112,4.701091591,4.79385558,4.906695842,4.970993435,5.000535167,5.050200688,5.144207565,5.222999687,5.27993748,5.357319162,5.409240388,5.458890903,5.545082838,5.658870897,5.762510785,5.888425133,5.990414505,6.07833698,6.167574867,6.217465458,6.274125664,6.336370116,6.394793373,6.471159737,6.600310097,6.726014379,6.835173492,6.956468897,7.069156611,7.229291654,7.373269147,7.516283839,7.620751485,7.753382932,7.912260081,8.033808065,8.180999062,8.314028134,8.405001563,8.486954673,8.610948421,8.732358862,8.799349797,8.892188809,8.912892779,8.910614567,8.937798062,9.016295092,9.100196311,9.163068459,9.21168115,9.245654267,9.254364489,9.310149422,9.377447952,9.461974367,9.572718975,9.682213192,9.787491091,9.917836824,9.978933417,10.019468584,10.037774304,9.967939981,9.923436074,9.862201938,9.751354798,9.617615505,9.552207565,9.342344483,9.143847452,9.005979369,8.889623007,8.881590497,8.924366364,8.850055642,8.744975305,8.630084401,8.453876837,8.241385433,8.159739919,8.05161613,7.936585183,7.763140982,7.693619256,7.622857143,7.595528603,7.473703032,7.328297593,7.319462332,7.178160675,7.21955111,7.218288215,7.104900281,6.932046264,6.761905595,6.649780556,6.590444514,6.529853079,6.529417943,6.556874023,6.477039075,6.438919662,6.32684714,6.262992185,6.25430447,6.206684589,6.150554548,6.100498906,6.047597374,5.971035949,5.910909659,5.864695217,5.799619881,5.72745483,5.655562363,5.590562051,5.539596124,5.480215067,5.412493904,5.354893404,5.292003751,5.233007815,5.170893404,5.112787746,5.065382932,5.012503907,4.97027321,4.927107221,4.88838512,4.850405752,4.812338856,4.775324789,4.741276649,4.714718349,4.694619569,4.701901844,4.790404501,4.832557674,4.785645514,4.679589872,4.577335417,4.641520475,4.755558612,4.870639575,4.950402001,4.950444514,4.891531103,4.80022257,4.6953598,4.633670522,4.671947484,4.645061582,4.685081588,4.643058456,4.478076899,4.284441388,4.059898718,4.174682088,4.358827133,4.483190997,4.575099719,4.63724914,4.697250391,4.776615192,4.886014379,4.994133167,5.094522038,5.069316661,4.945723038,4.929898093,4.914323226,4.966999687,5.049455455,5.130363239,5.143749922,5.209878087,5.307806189,5.316556424,5.138883401,4.841635511,4.560082526,4.530043138,4.407332291,4.343619881,4.387671147,4.210938418,4.001610503,3.685859331,3.515336043,3.551307284,3.510842138,3.583397312,3.799844952,4.03612879,4.128582682,4.015082213,3.834435761,3.569225383,3.433908096,3.321415442,3.193402938,3.049382932,2.861101594,2.684949047,2.795128478,2.866323226,2.810350735,2.67929728,2.471109722,2.624807752,2.544207565,2.344122538,2.504120038,2.71603126,2.698065646,2.761210378,2.824445139,2.656132541,2.535834948,2.382789622,2.226010628,2.309431697,2.469954361
3.523971241,3.557959362,3.61910347,3.654081901,3.680057518,3.707128478,3.744210066,3.779698656,3.821306658,3.866580807,3.903052204,3.958832135,4.013494217,4.052786496,4.095119725,4.129512973,4.16118287,4.229474211,4.303624883,4.368687715,4.412561425,4.456330103,4.489893092,4.528677712,4.575674898,4.651013442,4.705710535,4.786343232,4.898045639,4.956453892,4.987100969,5.038807127,5.12464145,5.205214129,5.277069084,5.355080963,5.417540481,5.478412004,5.556083776,5.687562363,5.786468271,5.874668334,5.954028134,6.045609253,6.13449703,6.203463582,6.265135355,6.333786808,6.398747108,6.483746171,6.594020631,6.696675211,6.800750234,6.929693029,7.057100344,7.241147859,7.380011254,7.530253204,7.667433573,7.806569553,7.946830885,8.101144108,8.241625508,8.33833573,8.453979369,8.57673523,8.624035011,8.76611191,8.908631447,9.003208503,9.067113473,9.07638387,9.08086277,9.149034073,9.226693342,9.292561425,9.36419131,9.408230072,9.444879025,9.484453892,9.551182244,9.636821507,9.744745233,9.868538918,9.942619569,10.0892804,10.173141607,10.199799937,10.208835261,10.167899969,10.133356674,10.076266333,9.966934667,9.87331291,9.788068771,9.566269459,9.362443264,9.209890591,9.097367927,9.091941232,9.120040013,9.052121288,8.918877149,8.754578306,8.520590184,8.40380869,8.297643013,8.192475148,8.074863395,7.96550422,7.864400125,7.790874648,7.721307909,7.534659581,7.496452641,7.384130041,7.307576118,7.310637074,7.171948734,7.001795561,6.856505158,6.795463582,6.731288528,6.669721788,6.635741169,6.701691779,6.610373242,6.522935917,6.414404501,6.3747196,6.357629259,6.312325102,6.263132229,6.206504533,6.143982495,6.066013129,5.994120663,5.928647702,5.872402626,5.81167865,5.754365739,5.671074711,5.588328853,5.538658331,5.488330103,5.446019381,5.380821507,5.308713973,5.23990247,5.177482963,5.117946858,5.071924977,5.035276024,5.003818693,4.963771178,4.916163801,4.872750234,4.833005314,4.795731166,4.764091279,4.736935292,4.732884026,4.802380744,4.878034386,4.891336043,4.825045327,4.717016568,4.6169603,4.653649265,4.765681776,4.885991872,4.938895905,4.903379806,4.808200063,4.700541419,4.573954361,4.56527915,4.641445452,4.606339481,4.669736793,4.573226633,4.34531041,4.116804001,3.967522351,4.177785558,4.364241325,4.506680838,4.62179181,4.679884964,4.770013129,4.828989059,4.929140356,5.042055642,5.153360425,5.138355736,5.068361363,5.021674273,5.021171616,5.07206502,5.144027509,5.227216005,5.278434511,5.290558299,5.185287902,5.051723664,4.832550172,4.692829009,4.396578931,4.226295717,4.196956549,4.105915599,4.10054392,4.050625821,3.836829009,3.633738043,3.441100344,3.441210378,3.398869647,3.487659894,3.692396374,3.901491716,4.010118162,3.980238825,3.88393623,3.787801188,3.61558487,3.402223195,3.158564551,2.934927165,2.80835261,2.681943107,2.589209128,2.603983745,2.61526477,2.616012504,2.434948421,2.420026258,2.410963426,2.33776055,2.514518287,2.653391685,2.513205377,2.546728353,2.681625508,2.54287965,2.389276649,2.25622507,2.188711472,2.379741169,2.570918412
3.50806377,3.53356674,3.610355736,3.657467959,3.687292279,3.715351047,3.746665833,3.782151922,3.827396061,3.885554236,3.926116912,3.951892466,3.99484839,4.036631447,4.072822757,4.110001876,4.153427946,4.220568928,4.306185683,4.368067521,4.429964364,4.460773992,4.492131291,4.530833385,4.587138481,4.639307284,4.688045014,4.764806502,4.823924977,4.895064708,4.961225383,5.012111285,5.067798687,5.167554861,5.257385433,5.355771178,5.43740919,5.502834636,5.582014379,5.712005002,5.80009503,5.876293842,5.960200063,6.042615817,6.115253517,6.184842763,6.248005002,6.325304158,6.385175367,6.484363864,6.592087527,6.674188184,6.782059394,6.938650828,7.088870272,7.246902157,7.379858706,7.540211316,7.714695842,7.891050953,8.021336668,8.151644889,8.295619881,8.389404189,8.523651141,8.647602376,8.711482338,8.810710847,8.991049703,9.13648015,9.234675836,9.233618006,9.240077524,9.283836199,9.353575492,9.434635824,9.517619256,9.570743357,9.633075336,9.671957487,9.738883401,9.824270084,9.932048765,10.06924914,10.111147234,10.273002813,10.3769603,10.383599875,10.4198412,10.389516724,10.350459519,10.295247265,10.187226008,10.103949984,10.004038762,9.818020631,9.533996874,9.383869959,9.324181307,9.314398249,9.324678962,9.200760238,8.99449578,8.792970303,8.674438262,8.530875899,8.433848078,8.317454204,8.214106908,8.14233448,8.028371366,7.988586433,7.827621132,7.688245077,7.583192248,7.501814317,7.422769616,7.264090028,7.093156611,6.993330416,6.920527665,6.871099719,6.837049078,6.816057518,6.844906533,6.763085964,6.599452329,6.494927165,6.469994373,6.471572366,6.426330728,6.376612691,6.319412316,6.236498906,6.165616755,6.08108784,5.974914661,5.92636949,5.891055955,5.81008065,5.736500156,5.675888715,5.625180369,5.573871835,5.511012191,5.451431072,5.392365114,5.32009503,5.245776805,5.190044389,5.141071585,5.099506096,5.070359487,5.047914973,4.997456705,4.940466396,4.890778368,4.847202251,4.812071272,4.78428759,4.804949047,4.829979369,4.899368553,4.953910597,4.940723976,4.855164739,4.749721788,4.650865896,4.642515786,4.744910284,4.848332604,4.871149734,4.795873711,4.637736793,4.500668959,4.389966865,4.477721788,4.561192873,4.49859331,4.560510159,4.423547359,4.182116912,3.94780869,3.930718349,4.12169553,4.322690841,4.509054079,4.658600813,4.747651141,4.826603314,4.915035949,4.949929353,5.073618006,5.203323539,5.221359175,5.134196937,5.079914973,5.071259769,5.119709909,5.184087527,5.23881463,5.32156799,5.323568615,5.124386371,4.914905908,4.706795874,4.477146608,4.290043138,4.055542357,3.953645514,3.89168115,3.829846827,3.821844326,3.744155048,3.489390435,3.363065958,3.322140669,3.297412942,3.430472023,3.625117849,3.744110034,3.825417943,3.835140982,3.771731166,3.764131291,3.570583307,3.282978431,3.056297593,2.903284776,2.807952485,2.767809941,2.680125039,2.599982495,2.47219256,2.406554548,2.393492967,2.332816505,2.351759925,2.267943732,2.439497343,2.567269772,2.418035636,2.403561113,2.521833073,2.518962176,2.37129603,2.206844639,2.200540169,2.386583307,2.537745545
3.508138793,3.54617568,3.596281338,3.642603314,3.678291966,3.707853704,3.737795561,3.784315098,3.835953736,3.879862457,3.908003751,3.940143795,3.978833385,4.00591935,4.066298218,4.106388246,4.153167865,4.219528603,4.280657706,4.336600188,4.408005002,4.473738043,4.507641138,4.569260394,4.622487027,4.648252579,4.702482026,4.733609253,4.776580181,4.866960925,4.926692091,4.979486089,5.052688965,5.151219756,5.24508909,5.331816193,5.417222882,5.493019068,5.58611066,5.682558299,5.788986558,5.886096905,5.964076274,6.034663332,6.102764614,6.169678024,6.248842763,6.330693342,6.427538606,6.521608003,6.598259456,6.684701469,6.778918412,6.944487652,7.100086277,7.254729603,7.386170678,7.556293842,7.714158174,7.876806502,8.050058143,8.226795874,8.335982495,8.448552673,8.587120975,8.729005314,8.819626133,8.898403251,9.047824945,9.236381369,9.354350735,9.372428884,9.372676461,9.411075961,9.47331291,9.565614254,9.67708909,9.744487652,9.786473273,9.861424195,9.94435261,10.031077212,10.124046264,10.260238825,10.306258206,10.437036574,10.569052829,10.591724914,10.630199437,10.59836949,10.564131291,10.50348734,10.410138168,10.319387309,10.206181932,9.953380431,9.726291966,9.639477337,9.589449203,9.53382432,9.452076274,9.260894029,9.079507346,8.918487027,8.745232885,8.647184745,8.542124414,8.411298531,8.331100969,8.256722726,8.260653954,8.109901844,7.898213192,7.791234761,7.701944358,7.611468584,7.451113473,7.232472648,7.145775555,7.062642076,7.014889653,6.961905595,6.994300719,6.987516099,6.853451704,6.666190685,6.569265395,6.561743045,6.583987496,6.544212566,6.48940794,6.419446077,6.347516099,6.267313535,6.160877774,6.070729603,6.020986558,5.986668334,5.905973117,5.835856205,5.767444827,5.703532354,5.638962176,5.576787746,5.507123476,5.445781807,5.394548296,5.331431072,5.263879962,5.212636449,5.168617693,5.131416068,5.098363239,5.056397624,5.008387621,4.949981869,4.899728665,4.858533292,4.841638012,4.877606752,4.912135042,4.918512035,4.987433573,5.01148859,4.974757112,4.880912785,4.776790247,4.68073523,4.579848703,4.650393248,4.73062332,4.721795561,4.630429509,4.451973742,4.288185058,4.242828384,4.305865583,4.388051266,4.317351672,4.308708972,4.208002501,3.969405439,3.833177868,3.931671147,4.057212879,4.217165364,4.389741794,4.613661769,4.805941857,4.911267271,5.000615192,5.038064395,5.106680838,5.266333229,5.308363864,5.157456705,5.020371366,4.988216318,5.026453267,5.047022194,5.047417318,5.156433886,5.163853704,5.074415755,4.911442326,4.780413879,4.584492654,4.341836824,4.08230322,3.835188496,3.680695217,3.62294467,3.549666771,3.534597062,3.411000938,3.25558487,3.233650516,3.210083151,3.354445764,3.478642076,3.578523289,3.64550422,3.635961238,3.590449515,3.583864958,3.489958112,3.333116599,3.145395436,3.0751985,3.020501407,2.950301969,2.855447327,2.716143795,2.606412004,2.567767427,2.429204126,2.294707096,2.307138481,2.252596436,2.301926852,2.435726164,2.308558925,2.347916224,2.428538918,2.428718975,2.324846515,2.155508596,2.163278525,2.304762738,2.421426696
3.500761488,3.538025633,3.592037512,3.639912473,3.652653954,3.668338856,3.715636136,3.774502032,3.811603626,3.835741169,3.874860894,3.920645202,3.965356674,4.009180369,4.057613004,4.11113723,4.163155986,4.215644889,4.268536418,4.338073148,4.419030947,4.500361363,4.579033448,4.655122226,4.734509534,4.676181307,4.708839012,4.74460769,4.787676149,4.854824633,4.912460144,4.959874961,5.053616755,5.123896218,5.203130978,5.291986246,5.356146296,5.467216005,5.579883714,5.671674898,5.770668334,5.854549547,5.944797749,6.022952173,6.094284464,6.169430447,6.259623632,6.33276649,6.454937168,6.550549547,6.628951547,6.714480775,6.820816505,6.964856518,7.11606377,7.253499219,7.400452641,7.55347046,7.721830572,7.899108471,8.041555486,8.202220694,8.356891529,8.571801188,8.745603001,8.850958425,8.946895905,9.01404689,9.112190059,9.295459831,9.435158487,9.52633448,9.551059706,9.606797124,9.642903407,9.705360425,9.817903095,9.912292591,9.96486402,10.036088778,10.144872773,10.243226008,10.335152235,10.438899656,10.504317599,10.601800563,10.758549547,10.832040013,10.857848078,10.810140669,10.770958425,10.721240388,10.647092216,10.527089716,10.378680838,10.101934354,9.943312285,9.924979056,9.797594248,9.72649703,9.573789309,9.386333229,9.209928103,9.004218818,8.864185058,8.774532041,8.626313223,8.531953736,8.509251641,8.496452641,8.373469209,8.129775555,8.00870272,7.893549234,7.766939669,7.629194123,7.457365427,7.330875899,7.265365427,7.167554861,7.095402313,7.060841513,7.101109097,6.942021882,6.769117849,6.691428571,6.680792748,6.702216943,6.657668021,6.585670522,6.505005314,6.429679275,6.368082526,6.292198812,6.184242576,6.146223195,6.080087527,5.991622382,5.921400438,5.856980306,5.795115974,5.723346046,5.649250391,5.57686277,5.511914973,5.453379181,5.399172241,5.346098156,5.295377305,5.240840263,5.193933104,5.149506721,5.103202251,5.065918099,5.018635824,4.955165989,4.906530791,4.882128165,4.940816505,4.985135355,5.011153485,5.0006402,5.036916536,5.042675836,4.990044389,4.886129415,4.780068771,4.679897468,4.532583932,4.480317599,4.56569678,4.520560175,4.435248515,4.287399812,4.112240075,4.128030009,4.090553298,4.147155986,4.14137668,4.056272585,3.970325727,3.786093154,3.822089403,3.991269772,4.164673961,4.345117849,4.543957487,4.713705533,4.89276899,4.990999687,5.08921538,5.11958487,5.138520788,5.263502344,5.308138793,5.121197874,4.900924039,4.729597999,4.788051266,4.789674273,4.789709284,4.90572804,4.913377931,4.858643326,4.735959987,4.663749922,4.639334792,4.460491404,4.179843701,3.935502344,3.710987183,3.497037824,3.395548609,3.306298218,3.27587121,3.164253829,3.127419819,3.125304158,3.231192248,3.348418881,3.427028446,3.466718349,3.457447952,3.410693342,3.427641138,3.312112535,3.184037512,3.006937168,2.949306658,3.005974367,2.885706783,2.786793373,2.695817443,2.572916536,2.517739294,2.550269459,2.421961863,2.224695217,2.201542982,2.177805564,2.271917474,2.228246327,2.358897155,2.373384183,2.347406064,2.268791497,2.087059706,2.105968115,2.188283839,2.287404814
3.484466396,3.511279775,3.547083464,3.608792748,3.631974992,3.658188184,3.698735855,3.729733042,3.767174742,3.803368553,3.84665458,3.897380431,3.973551735,4.035261019,4.084633948,4.152207565,4.201547984,4.260391372,4.31580869,4.387085964,4.465057831,4.549364176,4.59740919,4.597934354,4.596038762,4.61404689,4.640877774,4.690645827,4.755341044,4.828879025,4.895592373,4.975214755,5.028346358,5.099025946,5.181016568,5.275353548,5.352440138,5.464267584,5.558489528,5.641365427,5.742442013,5.840390122,5.918051891,5.998236949,6.062864645,6.152432635,6.266075649,6.368515161,6.484541419,6.603596124,6.676306346,6.764996561,6.856075023,6.985748046,7.145973117,7.291331041,7.438714598,7.579796186,7.724453892,7.87196749,8.028771491,8.230264458,8.401650516,8.642230697,8.906198187,9.033517974,9.068814004,9.131658643,9.22332729,9.358186933,9.534394498,9.65516724,9.719542357,9.785868084,9.852546421,9.907791185,9.985623007,10.06873648,10.150982182,10.234583307,10.331278525,10.462789622,10.554620819,10.64771241,10.728770241,10.798872148,10.967257268,11.03539356,11.074478274,11.027035949,10.996388872,10.951139731,10.880235073,10.738465771,10.538085652,10.296597687,10.193520475,10.110694592,9.984620194,9.854041888,9.69446452,9.510882151,9.297210378,9.131371053,9.030094405,8.836341357,8.753618006,8.779471085,8.743919975,8.602128165,8.36112035,8.236658956,8.136610191,8.028741482,7.875028446,7.686562051,7.553175367,7.46927915,7.382692091,7.245784308,7.199302282,7.182807127,7.050093154,6.902076899,6.815429822,6.808995311,6.819983745,6.76758487,6.713212879,6.633980619,6.548816505,6.466870897,6.413329165,6.307976243,6.248317599,6.164996561,6.084874023,6.01798312,5.926346983,5.858375742,5.789641763,5.714045639,5.647829947,5.57830322,5.518472023,5.460894029,5.409555486,5.353417943,5.292516411,5.230997187,5.176877774,5.132486402,5.082035636,5.035993748,4.991427321,4.954330728,4.932706471,4.977798062,5.046492029,5.092728978,5.111587371,5.071379806,5.0044814,4.959604877,4.886692091,4.795883714,4.699058456,4.592522663,4.48985558,4.29529728,4.352617693,4.309029072,4.219733667,4.117659269,3.975557362,3.948663957,3.873417943,3.910101907,3.96387121,3.856307596,3.74985683,3.705653017,3.852436386,4.067818693,4.295477337,4.488437637,4.691746171,4.842078149,4.96400125,5.074020631,5.164518912,5.193112848,5.171668646,5.168290091,5.121960613,4.908881525,4.758754611,4.571431072,4.502829634,4.50892904,4.553455455,4.642423257,4.672210066,4.633895592,4.492884026,4.438882151,4.495654892,4.489705533,4.271592373,4.037999375,3.804588934,3.560380119,3.358927165,3.241720538,3.14268709,3.077934354,3.021924351,3.028506408,3.132286339,3.189434198,3.264337606,3.290195686,3.299153485,3.253901844,3.287192248,3.260153798,3.03219256,2.927337293,2.814462019,2.861094092,2.892946546,2.868874023,2.796106283,2.644093779,2.500471397,2.475443576,2.506418256,2.41548734,2.279944983,2.145492967,2.123688653,2.170810878,2.365494217,2.331781182,2.216722726,2.182459519,2.04134542,2.164894029,2.240245077,2.33574492
3.469264145,3.482153173,3.513620506,3.562648328,3.602093154,3.634040638,3.670552048,3.703364802,3.751522351,3.817410441,3.867058456,3.921693029,3.968105033,4.012278837,4.085914348,4.158279462,4.203125977,4.264597687,4.325499219,4.40899281,4.51049453,4.553933104,4.524013754,4.519154736,4.531338543,4.556531416,4.598547046,4.6409603,4.732796499,4.817530478,4.888295092,4.946983432,4.983492341,5.069061582,5.171818693,5.271242263,5.364746483,5.457520475,5.532548922,5.630391997,5.706105658,5.798114411,5.897435449,5.989191622,6.059661144,6.170248203,6.281923101,6.392537668,6.507846202,6.602770866,6.695699906,6.789374179,6.910284464,7.05372679,7.200015005,7.339108471,7.499713661,7.642228196,7.791482338,7.940443889,8.072165052,8.219891216,8.402608315,8.622219444,8.87868709,9.0083201,9.133066583,9.225350422,9.351837449,9.47212754,9.612466396,9.760715224,9.879024695,9.965694279,10.043258518,10.119577368,10.174349484,10.268196311,10.326664583,10.445881838,10.553590497,10.674420756,10.800830259,10.875178493,10.975209753,11.02419256,11.188548922,11.247892466,11.284231322,11.265660519,11.235843701,11.181936855,11.087482338,10.964586433,10.708909034,10.521623007,10.425340419,10.269944358,10.168765239,10.02895905,9.830099406,9.628761488,9.436098781,9.306925914,9.107638637,9.009177868,9.031247265,9.004496405,8.81603251,8.616985308,8.461441701,8.355125977,8.258230697,8.152060019,8.015652391,7.86662332,7.743492341,7.581741794,7.390482026,7.361795561,7.302829634,7.187653642,7.050383245,6.939080963,6.93231885,6.943289778,6.886201938,6.81750547,6.77331166,6.680145045,6.584532666,6.518922163,6.425903095,6.318477024,6.247362301,6.16739231,6.08335855,6.021719287,5.967927477,5.880050016,5.784140044,5.721910597,5.655372304,5.593985621,5.537197874,5.46262457,5.411618631,5.370078149,5.320552673,5.288247577,5.245254142,5.176922788,5.143244764,5.069594248,5.060366364,5.034313223,5.025197874,5.0822407,5.133969365,5.184827759,5.200002501,5.123105971,4.946375742,4.754610816,4.695124726,4.610965927,4.530005627,4.411811191,4.343567365,4.159602376,4.104885277,4.05935855,4.011608628,3.977035324,3.87334292,3.787736168,3.703334792,3.745362926,3.767324789,3.694407002,3.656102532,3.681635511,3.898933417,4.162313223,4.405294154,4.634180681,4.784902782,4.90092904,5.004746483,5.116271335,5.200755236,5.248875274,5.164969053,5.006947171,4.843145983,4.72140794,4.523906221,4.397764301,4.254291966,4.252178806,4.310597062,4.416952798,4.447787434,4.39945483,4.268361363,4.183489841,4.30924664,4.39814442,4.277109097,4.06268709,3.849990622,3.616265083,3.39971241,3.223729916,3.139150985,3.053134104,2.964141294,2.937918099,2.996106283,3.046822132,3.090983432,3.113130353,3.177042826,3.124261332,3.142602063,3.224005002,3.03228759,2.840747734,2.754468271,2.716028759,2.764503907,2.834985933,2.789326665,2.674773367,2.51788684,2.413604251,2.433452954,2.482383245,2.430697093,2.277884339,2.093206627,2.168550172,2.276116286,2.273082838,2.1436799,2.065270397,2.007267271,2.160820256,2.255974992,2.287994998
3.422504533,3.440590184,3.494026883,3.53654517,3.567372304,3.602998437,3.652011254,3.692939043,3.751572366,3.808290091,3.851050953,3.919917474,3.972286339,4.010460769,4.096187559,4.159237262,4.2044789,4.260763989,4.330160675,4.408722726,4.509319162,4.507493592,4.471389809,4.466353235,4.485334167,4.532799,4.576515161,4.62950422,4.692143795,4.781214129,4.853611754,4.911119725,4.970868396,5.040775242,5.1414392,5.259686152,5.364651454,5.448847765,5.518216943,5.610735855,5.717026571,5.812276336,5.854999687,5.955068459,6.069199125,6.17315161,6.284438887,6.370938418,6.480242576,6.581524226,6.691901219,6.809230384,6.935557362,7.084536418,7.21161613,7.351094717,7.50121663,7.66249453,7.828486402,7.974557049,8.122215692,8.274283214,8.452666458,8.606409503,8.813604251,8.999349797,9.161628009,9.323996249,9.448070022,9.576475148,9.730383245,9.861366677,10.018555799,10.148611441,10.234615817,10.333164114,10.400110034,10.469426696,10.552922788,10.659138481,10.786393248,10.896162551,11.042868396,11.117214129,11.220186308,11.293331666,11.423397312,11.478684589,11.497918099,11.536972804,11.488727727,11.415767427,11.312817756,11.159022194,10.907971241,10.752490153,10.585970616,10.471897468,10.336845264,10.157241638,9.974439512,9.781931854,9.643286027,9.495272273,9.365609253,9.26867146,9.21411191,9.022422007,8.847962488,8.725541732,8.6031985,8.476698968,8.404271335,8.300829009,8.171190997,8.008115036,7.804331354,7.574994686,7.520750234,7.472295092,7.38649578,7.235378556,7.120435136,7.061124101,7.056285089,7.005431697,6.934381994,6.902724601,6.819201,6.72515161,6.647062207,6.543827446,6.423947484,6.371746171,6.296587684,6.21139106,6.155211003,6.081040325,5.979641138,5.875993748,5.81545733,5.758577055,5.687507346,5.622361988,5.560875274,5.48163051,5.4316799,5.399217255,5.398534542,5.357191622,5.278587058,5.246662082,5.180108784,5.120595186,5.129397937,5.110424508,5.109656768,5.17388684,5.229029072,5.273978118,5.260036261,5.176817756,5.01113598,4.764776493,4.537075336,4.404566427,4.320025008,4.2204814,4.107766177,3.999944983,3.923143482,3.8732804,3.824277587,3.846584558,3.837129103,3.714665833,3.608780244,3.601167865,3.599189747,3.581341669,3.590184433,3.687634886,3.917186621,4.181259143,4.465395436,4.698305721,4.842890903,4.911367302,4.987686152,5.096465145,5.158326977,5.217202876,5.140266333,4.944760238,4.679352298,4.473362926,4.345327915,4.184390122,4.056560175,4.02870397,4.071372304,4.194518287,4.234215692,4.164871522,4.066280713,3.930033135,4.103354798,4.221884339,4.170675836,4.018460769,3.850135667,3.628506408,3.392585183,3.19676899,3.063789934,3.00588684,2.936537668,2.877331666,2.8591985,2.897557987,2.922168178,3.034435761,3.11926477,3.001177868,2.995618631,3.16844764,3.033257893,2.832080025,2.70220944,2.649140356,2.640850266,2.667801188,2.71238262,2.682425758,2.576310097,2.397506721,2.315558612,2.352797749,2.356181307,2.224232573,2.055174742,2.171093467,2.208527665,2.172488903,2.132061269,1.990834636,1.987641138,2.144525164,2.193520475,2.198246952
3.357914348,3.392715224,3.444811504,3.492348859,3.526897155,3.578855892,3.623619881,3.679694905,3.7347196,3.779248515,3.837656768,3.902442013,3.952490153,4.018923414,4.096170053,4.149251641,4.179661144,4.243030947,4.300994061,4.358374492,4.422897155,4.44006502,4.421084089,4.428971554,4.456842763,4.505572992,4.571298531,4.612013754,4.676156299,4.764788997,4.830747108,4.892326352,4.951749922,5.071052204,5.170008128,5.246777118,5.346543295,5.43196749,5.51084714,5.582514536,5.648827759,5.720890278,5.795281025,5.894984683,6.019218506,6.140331354,6.255682401,6.352465145,6.4425608,6.545933104,6.679389809,6.831989997,6.951062207,7.094562051,7.232497656,7.376080025,7.552290091,7.693784308,7.845719287,8.009417943,8.157371679,8.324648953,8.463789934,8.629554236,8.818940919,9.011688653,9.19472085,9.378085652,9.538308221,9.674243201,9.825645514,9.991547359,10.125529228,10.291178493,10.431354798,10.547478587,10.640235073,10.699563614,10.788688965,10.863219756,11.007124726,11.140366364,11.261329165,11.386860894,11.477524226,11.568305095,11.673367927,11.724946546,11.750899656,11.81753548,11.743257268,11.657838074,11.554628321,11.334299469,11.127379806,10.93075336,10.775484839,10.649437949,10.489993123,10.322135667,10.129365427,9.974604564,9.83491091,9.715756174,9.582314473,9.466223195,9.294454517,9.09670272,8.964723976,8.878457018,8.758151922,8.6623995,8.584765239,8.450448265,8.284091279,8.051428571,7.811946233,7.698198187,7.646772116,7.592670209,7.463394811,7.345320413,7.222727102,7.180826508,7.131758675,7.063427321,7.057512973,6.979266021,6.864315098,6.774514536,6.633052829,6.550276962,6.499368553,6.421624258,6.32966552,6.289890591,6.204486402,6.092236324,5.989539231,5.903114723,5.831694905,5.757494217,5.691178493,5.617838074,5.557446702,5.511517349,5.465082838,5.490915911,5.473735542,5.418665833,5.353062832,5.305650516,5.22204939,5.205396686,5.203203501,5.191474836,5.195608628,5.263599875,5.315138481,5.344135042,5.314833385,5.238449515,5.098523289,4.881102845,4.683253517,4.492866521,4.291178493,4.139228509,4.021506721,3.901364176,3.81529478,3.78124664,3.71475086,3.672185058,3.724661457,3.733346671,3.553750547,3.520780244,3.5030397,3.513808065,3.546878399,3.689938106,3.926622069,4.177177868,4.453816818,4.666288215,4.803478587,4.844906533,4.880882776,4.984075023,5.026085652,5.120907784,5.109209128,4.927497343,4.714005627,4.430086902,4.169162863,3.987726164,3.872417631,3.816622695,3.859213504,3.963836199,4.016365114,3.935687402,3.841240388,3.743217255,3.90572804,4.00259081,3.980391372,3.891211003,3.767892466,3.615502344,3.382594561,3.167849953,3.026060644,2.939543607,2.875633636,2.831279775,2.777893092,2.786343232,2.838932166,2.944667709,2.981244139,2.870524539,2.93177618,3.079864958,2.999259769,2.857620506,2.721012817,2.580271335,2.56371116,2.5475211,2.565821819,2.561890591,2.526582057,2.447224758,2.299438575,2.214572054,2.304797749,2.234248203,2.047144733,2.047897468,2.106180681,2.135012191,2.085029072,1.930045639,2.021009065,2.131608628,2.135547359,2.132393873
3.321257893,3.366542044,3.409437949,3.443483589,3.482338231,3.526632073,3.581369178,3.643978743,3.679652391,3.740413879,3.816755236,3.883043451,3.947501094,4.029241638,4.067736168,4.091293529,4.13305658,4.212088778,4.26374242,4.298998437,4.334547046,4.38595061,4.381019068,4.396578931,4.440017505,4.485424195,4.529307909,4.581139106,4.672845264,4.763876211,4.830554548,4.916048765,4.981309159,5.075211003,5.18025633,5.250640825,5.339448578,5.395155986,5.512045014,5.557594248,5.600962801,5.65833573,5.761037824,5.881082838,5.99577618,6.11356799,6.21516724,6.308971554,6.430221944,6.512772741,6.644931541,6.790844639,6.925074086,7.060298843,7.221274148,7.400492654,7.547831197,7.691105971,7.847182244,8.008982807,8.14412754,8.280342607,8.444733979,8.624852766,8.815619881,9.012601438,9.192235073,9.418290716,9.630419506,9.780793998,9.923243514,10.09462457,10.257302907,10.421651766,10.579853704,10.746738356,10.872770241,10.951482338,11.017497968,11.080142545,11.221589247,11.37369678,11.499451078,11.636859018,11.732763989,11.826010628,11.918772116,11.985590497,11.988361363,12.056050016,11.984335105,11.920015005,11.794468271,11.566757112,11.313082838,11.116829009,10.966349484,10.846917162,10.689995624,10.497285402,10.344100031,10.195088465,10.061989372,9.929005314,9.774629572,9.599739919,9.431462332,9.276874023,9.145998124,9.036889028,8.945295405,8.833145358,8.701579244,8.484886527,8.270131916,8.038672085,7.890223195,7.822249453,7.750994686,7.65571241,7.538475774,7.430161926,7.318759612,7.285121601,7.226533292,7.202808378,7.141479212,7.025670522,6.899100969,6.761227884,6.668718975,6.630321976,6.524981557,6.454982182,6.404646452,6.313788059,6.196276336,6.078136918,5.999619881,5.930000625,5.845121601,5.760567677,5.69980869,5.659218506,5.614479525,5.563763676,5.543204751,5.552815255,5.530530791,5.47561613,5.425618006,5.347356049,5.278219444,5.281080338,5.27468834,5.272537668,5.272405127,5.339836199,5.367844952,5.370345733,5.344942795,5.271509847,5.170293217,5.028906533,4.856467646,4.665035324,4.477874336,4.342089403,4.190329478,4.013321663,3.829461707,3.704762738,3.666188184,3.624022507,3.585170366,3.667346046,3.542992185,3.44857518,3.449485464,3.472890278,3.527854955,3.713708034,3.970748359,4.225733042,4.449225383,4.588518912,4.679682401,4.698228196,4.718849641,4.811221007,4.858700844,4.998759612,5.036468897,4.863362301,4.717361676,4.5078387,4.242108159,3.961130353,3.744342607,3.649618006,3.659531103,3.748263832,3.846114411,3.747651141,3.634708346,3.57734292,3.714595811,3.766682088,3.753497968,3.696235073,3.60998312,3.523413567,3.392930291,3.285251641,3.149524226,2.966694592,2.821044076,2.779173492,2.750021882,2.695574867,2.706845889,2.724466396,2.792110034,2.749904345,2.835846202,2.966594561,2.861374179,2.730613317,2.718196937,2.612463895,2.488677712,2.472025008,2.447524852,2.441910597,2.415062207,2.367577368,2.266305721,2.162058143,2.234095655,2.289755549,2.111004689,1.980726477,2.013806815,2.164944045,2.111592373,1.916246327,2.009770553,2.089525477,2.076593936,2.05974367
3.313405439,3.353512973,3.384405127,3.414982182,3.450050641,3.47568115,3.541356674,3.587195999,3.635018443,3.709649265,3.774797124,3.845466708,3.927204751,3.984270084,4.014179431,4.037534229,4.113900594,4.184772741,4.232085027,4.247649891,4.276994061,4.320535167,4.340538918,4.375592373,4.417170366,4.475971241,4.527319787,4.60179306,4.687144733,4.757346671,4.81603251,4.891578618,4.974882151,5.049673023,5.151194748,5.233160363,5.303192248,5.348891529,5.41587246,5.473800563,5.535497343,5.607597374,5.749834323,5.871654892,5.952780244,6.050965927,6.168140044,6.286664583,6.377748046,6.481102845,6.608765239,6.754343232,6.909021569,7.057925602,7.219718662,7.376197562,7.521007815,7.673895592,7.801177868,7.968742732,8.131228509,8.291758675,8.456170053,8.632687715,8.794333229,8.98755111,9.210588309,9.453534229,9.680357612,9.898898406,10.083543607,10.206316974,10.361710535,10.539801188,10.715548609,10.906128165,11.085429197,11.19929728,11.259758675,11.342331979,11.42620819,11.60905533,11.75670397,11.862712098,11.992540169,12.08003251,12.169618006,12.240720225,12.251553611,12.299458581,12.236418881,12.170578306,12.031472335,11.778468271,11.476799,11.31414317,11.208720225,11.086749609,10.87913473,10.73363176,10.622677087,10.450103157,10.316306346,10.127114723,9.915778681,9.743002188,9.598316974,9.462812129,9.358449515,9.226383245,9.089327915,8.933776805,8.746563301,8.492378868,8.302089403,8.131398562,8.009122851,7.915266021,7.850978431,7.745187871,7.631659894,7.50364739,7.421079087,7.366429509,7.339606127,7.324949047,7.194583307,7.054602063,6.914625821,6.788686465,6.744130041,6.655262269,6.583809941,6.492834011,6.383574867,6.273948109,6.195771178,6.139013442,6.055182244,5.950099406,5.868653954,5.823022194,5.779105971,5.711637387,5.646749609,5.593242888,5.592602688,5.589051579,5.559109722,5.516198812,5.454619569,5.382542044,5.335962488,5.349491716,5.361045327,5.353795561,5.336245077,5.372006252,5.373401688,5.366354486,5.319074711,5.247754923,5.17638262,5.078159425,4.9568015,4.814969678,4.690250703,4.591272273,4.423604877,4.2115186,3.992400125,3.792432635,3.615644889,3.543097218,3.522700844,3.50070397,3.482010628,3.396894029,3.412841513,3.437464208,3.494937168,3.680752735,3.904942795,4.164728978,4.365011566,4.465547984,4.527447327,4.507996249,4.53974367,4.623084714,4.678514536,4.836206314,4.875431072,4.748411379,4.582729603,4.436791497,4.282840888,4.056950297,3.801743045,3.569750547,3.485796812,3.543929978,3.658465771,3.556153798,3.450275711,3.415969991,3.531951235,3.525021569,3.512752735,3.448425133,3.433710535,3.311349797,3.227090966,3.201367927,3.108804001,2.908964051,2.766769616,2.728740231,2.705595499,2.667581119,2.657397937,2.633412942,2.664757737,2.677969365,2.713560488,2.77449453,2.761943107,2.624635198,2.573629259,2.576797749,2.492651454,2.404058768,2.367559862,2.343644889,2.326116912,2.288495155,2.197811816,2.141994373,2.184362613,2.275441075,2.209608003,2.040517662,1.950452016,2.108021257,2.090758362,1.905227884,1.950139419,2.015737418,2.003293529,1.966251954
3.293779306,3.324293842,3.351739919,3.385903095,3.421961863,3.464265083,3.513803063,3.56502407,3.614767115,3.674440763,3.730525789,3.800442638,3.86966427,3.9219206,3.954810878,4.003383557,4.073830572,4.133269147,4.190469522,4.211831197,4.230849641,4.269076586,4.30630322,4.352922788,4.4105608,4.483953736,4.557251641,4.617147859,4.667411066,4.715025946,4.791027196,4.882830885,4.9692804,5.0303995,5.110499531,5.18636824,5.243788684,5.319597374,5.386285714,5.468243826,5.560087527,5.663089716,5.76105533,5.84966552,5.951767427,6.039482338,6.156278837,6.273753048,6.383682401,6.495059706,6.621179118,6.775269772,6.919124726,7.0572804,7.20099281,7.345753048,7.465775555,7.623259769,7.806351985,7.955883714,8.121905595,8.302186933,8.456505158,8.636156299,8.835298531,9.042508284,9.244273836,9.474713348,9.698760863,9.936837762,10.177000313,10.338328228,10.471304783,10.644038762,10.817045327,11.021454204,11.238184433,11.429704283,11.517671772,11.592107534,11.670852141,11.837574242,12.001740544,12.11177743,12.229221632,12.350499531,12.433377931,12.501944358,12.533634261,12.541549234,12.523691153,12.416810253,12.244593936,11.899160988,11.680655205,11.497210378,11.471602376,11.294437012,11.10537543,11.015852454,10.854729603,10.69276899,10.489975617,10.263184745,10.069116599,9.890533292,9.7545608,9.65244889,9.504317599,9.360752735,9.19062457,8.98694342,8.781239137,8.524573929,8.367174742,8.231957487,8.106710847,8.068381369,7.998554548,7.843246014,7.712617693,7.575497343,7.511587371,7.471962488,7.476303845,7.379020944,7.217670522,7.049377931,6.951329791,6.907288528,6.822979681,6.721955611,6.604521413,6.48854517,6.399997499,6.326361988,6.252123789,6.152337606,6.048270084,5.957969365,5.906028134,5.86339231,5.803598625,5.732701469,5.667656143,5.629614254,5.622191935,5.605359175,5.574469522,5.521057831,5.455387309,5.39302532,5.393400438,5.419025946,5.431574867,5.409160363,5.379568615,5.372306346,5.360527665,5.32131041,5.260661457,5.161930603,5.071627384,5.012338856,4.958584558,4.861724289,4.751214755,4.637701782,4.510804626,4.329147859,4.10201688,3.886622069,3.676008753,3.518374492,3.439467334,3.405944358,3.378103157,3.35129728,3.384232573,3.400180056,3.456427634,3.628816505,3.841753048,4.030882151,4.230041888,4.314728353,4.345860581,4.316941544,4.344925289,4.406452016,4.517526727,4.660603939,4.697805564,4.57593498,4.42182432,4.292176305,4.180501407,4.032132541,3.829031572,3.580456393,3.39052704,3.344412629,3.436741482,3.374864645,3.251338543,3.212508909,3.363923726,3.299533604,3.286179431,3.224652704,3.216150047,3.134467021,3.034990935,2.986543295,2.962210691,2.864397624,2.706455767,2.670832135,2.65721538,2.639122226,2.607464833,2.593485464,2.593442951,2.630354486,2.601490466,2.60524664,2.651418568,2.58736105,2.494284464,2.457848078,2.469491716,2.399302282,2.328027509,2.297037824,2.276421382,2.246702094,2.183897468,2.082838387,2.099511097,2.213749297,2.223989997,2.048072523,1.917364176,2.010025633,2.031389809,1.893169115,1.867638637,1.875926227,1.887524852,1.882563301
3.261674273,3.284431385,3.319107221,3.351244764,3.399784933,3.452101282,3.508819006,3.559012191,3.607959987,3.639147234,3.684879025,3.749229134,3.814932166,3.86959925,3.926244451,3.974254455,4.022394498,4.059063457,4.120207565,4.154575805,4.198907158,4.2448015,4.303202251,4.357401688,4.420101282,4.488072523,4.551477337,4.602468271,4.650025633,4.695907471,4.767554861,4.84995311,4.949811816,5.032247577,5.097965614,5.151114723,5.219763676,5.324761488,5.394920913,5.459941232,5.526229447,5.627823695,5.736170053,5.832460144,5.918214442,6.010233198,6.15763176,6.274653329,6.408212566,6.532346358,6.640812754,6.771993748,6.916566427,7.060851516,7.221336668,7.357374179,7.491668646,7.635261019,7.78598312,7.933649265,8.101591747,8.31670397,8.510927165,8.715516099,8.912190059,9.084061269,9.247314786,9.440475148,9.671332291,9.932716474,10.168872773,10.404076274,10.589724289,10.743699906,10.953557987,11.126226946,11.350984683,11.585850578,11.766149422,11.844811504,11.92982557,12.045769303,12.254894655,12.37811316,12.472565177,12.653166615,12.717971866,12.777302907,12.827663645,12.820999062,12.806196937,12.659276024,12.387453579,12.074205689,11.874055642,11.734449515,11.694904658,11.494834636,11.40204814,11.251060957,11.061904345,10.838924664,10.621769303,10.408072523,10.221711785,10.05763301,9.909994373,9.774732104,9.605591747,9.418918412,9.246361988,9.04633698,8.847667396,8.675170991,8.527077212,8.354730853,8.258735855,8.213771804,8.074643326,7.916603939,7.75887965,7.663299781,7.607749922,7.592562676,7.535697405,7.370938418,7.210168178,7.125541732,7.064080025,6.966346983,6.84729728,6.717141607,6.575627384,6.479094717,6.393668021,6.309379181,6.233575492,6.158104408,6.073730541,5.97139106,5.869274148,5.792230072,5.729370428,5.691528603,5.657615505,5.626468271,5.616317599,5.581679275,5.539341044,5.473650516,5.382126915,5.345282901,5.435281025,5.478346983,5.473638012,5.431409816,5.366859644,5.32182307,5.297390435,5.236758987,5.148476399,5.030647077,4.918296968,4.854787121,4.853634261,4.799767427,4.698535792,4.597359175,4.490555799,4.359492341,4.175804939,3.955193498,3.73683276,3.553435449,3.417290403,3.360710222,3.3305608,3.338585808,3.35459331,3.36361613,3.400337606,3.544125039,3.696057518,3.886379494,4.071367302,4.177710535,4.168957799,4.132393873,4.146218193,4.218765864,4.373411691,4.501374179,4.525621757,4.44278337,4.279052204,4.106068146,3.981661769,3.888930291,3.767184745,3.592725227,3.395033448,3.214427008,3.22899156,3.193180369,3.082800875,3.103174742,3.200347609,3.128987809,3.118201938,3.0851191,3.025580494,2.976525164,2.908821507,2.835843701,2.772021257,2.71401563,2.633357924,2.617072835,2.608657706,2.595818693,2.563818693,2.565774304,2.5516799,2.588021257,2.545002813,2.541986871,2.55187246,2.492799,2.445211629,2.380939043,2.417007815,2.398389497,2.310602063,2.266743357,2.238341982,2.199644889,2.182316974,2.087887465,2.049305408,2.129572992,2.189954361,2.048572679,1.892393873,1.90940919,1.917509222,1.837721788,1.835893717,1.820008753,1.804758987,1.80713723
3.221136605,3.248532666,3.282855892,3.31507346,3.387276024,3.436713973,3.493304158,3.524166302,3.561305408,3.603178493,3.663182244,3.729200375,3.780296343,3.832025008,3.890460769,3.936600188,3.977460456,4.018483276,4.059005939,4.106023132,4.158101907,4.244323851,4.291511097,4.326019381,4.409157862,4.489382932,4.533839325,4.594290716,4.645806815,4.709586746,4.772971554,4.865275399,4.951442326,5.018250703,5.083668646,5.150829634,5.231919975,5.301689278,5.381146608,5.453241638,5.536077524,5.633262895,5.721197874,5.809235386,5.89040075,5.992292591,6.089748046,6.220058768,6.346228196,6.480410128,6.62895905,6.765571741,6.913480463,7.066223195,7.2198412,7.354325727,7.492491404,7.635381057,7.773464208,7.943452329,8.115185996,8.312135042,8.5049603,8.692804001,8.878482026,9.083411066,9.282660832,9.484413879,9.673335417,9.884668959,10.119857455,10.374256955,10.620718975,10.83817693,11.035973742,11.268051266,11.448565177,11.699798687,11.938618318,12.099193498,12.199069709,12.286612066,12.523386058,12.680882776,12.753430447,12.938515786,13.024552673,13.06281463,13.11990247,13.105237887,13.071422319,12.846757112,12.526349484,12.268636449,12.099100969,12.059403564,11.893551735,11.786313223,11.647944983,11.416105033,11.183797437,10.970488278,10.76371116,10.565509222,10.387165989,10.234255705,10.068393873,9.875981244,9.685584245,9.512535167,9.349476711,9.161387934,8.975409816,8.822266958,8.645541732,8.483438575,8.365754298,8.218673335,8.097335417,7.943107221,7.817435449,7.751217255,7.719447327,7.712972804,7.572131291,7.428316349,7.334454517,7.250083151,7.142587058,7.009938106,6.846361988,6.702549547,6.620068771,6.547373554,6.465775555,6.384985308,6.290018131,6.168325102,6.053041575,5.948934042,5.87209503,5.782722101,5.681352923,5.597701782,5.551799937,5.532984058,5.527339794,5.493849328,5.437136605,5.382306971,5.258330728,5.358306971,5.466280713,5.49648015,5.485174117,5.420431385,5.338120663,5.229084089,5.196751485,5.099180994,4.993442951,4.892081275,4.795526102,4.69779056,4.718457018,4.688460144,4.613784308,4.524231322,4.427353548,4.318412004,4.187313535,4.021421694,3.836028759,3.627991247,3.428053767,3.339013442,3.311069709,3.303397312,3.317154111,3.318839637,3.347721163,3.425668021,3.559052204,3.757954361,3.908826508,4.064797749,3.983932479,3.945435449,4.013996874,4.116889028,4.241723038,4.351379806,4.384750234,4.322348234,4.215394811,4.054161926,3.874475774,3.709266646,3.590344483,3.481575492,3.356811504,3.182361988,3.085839325,3.062482026,2.937097843,2.997799312,3.059663645,2.988668959,2.957944358,2.99270522,2.923766177,2.869766802,2.821854329,2.77996874,2.698123163,2.621131604,2.570640825,2.566467021,2.567057205,2.553127852,2.520515161,2.533359175,2.510502032,2.538060644,2.500994061,2.493106596,2.455657393,2.407562363,2.388851516,2.346455767,2.325114098,2.328637699,2.278166927,2.228506408,2.188636449,2.155271022,2.151994998,2.108246327,2.024997812,2.048717724,2.15475336,2.115366052,1.951097218,1.858090653,1.845939356,1.809603001,1.814326977,1.805971866,1.788131291,1.784695217
3.167987496,3.208902782,3.247369803,3.294644576,3.377865583,3.424902782,3.468871522,3.500373867,3.551259769,3.601778056,3.65353673,3.693541732,3.754773367,3.815654892,3.85980869,3.894437012,3.93423945,3.979933729,3.997709284,4.056620194,4.118467021,4.181804314,4.235436074,4.284676461,4.376870272,4.454457018,4.500598937,4.58140919,4.653764301,4.694346983,4.761492967,4.838276962,4.902386996,4.983354798,5.042230697,5.103462332,5.178070647,5.262329478,5.350116912,5.441595499,5.540473898,5.614459519,5.723703657,5.798849641,5.862219444,5.952067521,6.059241013,6.177690528,6.331571116,6.461179118,6.582442013,6.723643639,6.869534229,7.008990309,7.161693029,7.300911535,7.453629259,7.617940606,7.783492341,7.939253517,8.099291028,8.282678337,8.469701782,8.663922476,8.862266958,9.061099093,9.288420131,9.500586433,9.709724289,9.930615817,10.154348234,10.39260769,10.638284464,10.891878712,11.140636449,11.352900281,11.588721475,11.820946546,12.094026883,12.313387934,12.459438575,12.543547359,12.720270084,12.966161926,13.086234448,13.232052516,13.342154423,13.365819319,13.413071585,13.400757737,13.262316974,12.937387934,12.668688965,12.478692091,12.414196937,12.29276649,12.147741169,12.013501719,11.779253517,11.543887465,11.316101282,11.110809628,10.907343545,10.725206627,10.562320725,10.40089528,10.198331979,9.978030635,9.784637699,9.626318224,9.444821507,9.268016255,9.098425758,8.949451704,8.781914348,8.585082838,8.396934042,8.242668334,8.107183495,7.971028446,7.900901532,7.865828071,7.797831822,7.707513598,7.635723664,7.544732729,7.453621757,7.332291341,7.204396374,7.06361488,6.921675524,6.798607065,6.674873398,6.550837137,6.465225383,6.369150359,6.267193498,6.131938731,5.971341044,5.855917474,5.7692804,5.701236636,5.6336005,5.559227259,5.485324164,5.423754923,5.402843389,5.364788997,5.301459206,5.216345108,5.208682713,5.377260394,5.47145733,5.4947196,5.466500781,5.388891529,5.296722726,5.182331979,5.036976555,4.959029697,4.847554861,4.750396999,4.644091279,4.547671147,4.568360113,4.55443076,4.510266958,4.432647702,4.3318412,4.227803689,4.112520163,3.997529228,3.885321663,3.71459331,3.509391685,3.35862457,3.298000625,3.290238199,3.292238825,3.293419193,3.321615505,3.386478274,3.491868709,3.665220381,3.816215067,3.8441588,3.810025633,3.927132229,3.990189434,3.989034073,4.075306033,4.187796186,4.223594873,4.212889028,4.128432635,4.090968428,3.959837449,3.777720538,3.591477337,3.46748859,3.391797437,3.303822445,3.139716161,2.994150672,2.918922163,2.855699906,2.938950922,2.88419131,2.826088153,2.874028134,2.837221632,2.776390122,2.757519225,2.730905908,2.665708034,2.595686152,2.535144733,2.521610503,2.518954673,2.512345108,2.490905908,2.485429197,2.473998124,2.491608628,2.459611128,2.433918099,2.399972491,2.3731191,2.34636824,2.313930603,2.293469209,2.282925914,2.268593936,2.194788371,2.156283839,2.131943732,2.102019381,2.084718975,2.021379181,1.992067521,2.079952485,2.081843076,1.980533917,1.843313535,1.846259456,1.810700844,1.791314786,1.784867771,1.783024695,1.784630197
3.132428884,3.180921538,3.230462019,3.273457956,3.341071585,3.40060769,3.44297593,3.477806815,3.535782432,3.579876211,3.611818693,3.652673961,3.697510472,3.762083151,3.821676774,3.85436699,3.889445452,3.924313848,3.968177555,4.02089653,4.07820694,4.13318412,4.193070334,4.269256643,4.354055642,4.425978118,4.461961863,4.534424508,4.611513598,4.650438262,4.734291966,4.819005939,4.882725852,4.949291654,5.009057831,5.096657706,5.170370741,5.247874961,5.337232885,5.42262457,5.505613004,5.588611441,5.673905595,5.755993748,5.850715849,5.942036887,6.047797437,6.161422945,6.282263207,6.390001876,6.519657393,6.655407315,6.764886527,6.895417318,7.029989372,7.206902157,7.363608628,7.511222257,7.69043076,7.900986558,8.096437637,8.293644264,8.491195999,8.691346046,8.882338231,9.077739294,9.312130041,9.552922788,9.773809315,9.989914348,10.214166927,10.447174742,10.678682088,10.897275399,11.111862457,11.347516099,11.619125977,11.920602688,12.200845264,12.478547046,12.69062332,12.835978743,12.932861519,13.184787746,13.412681463,13.511997499,13.651946233,13.670864645,13.72339106,13.648282588,13.368877774,13.085936855,12.881272898,12.765549234,12.67625633,12.578523289,12.390979681,12.159142232,11.921733042,11.695759925,11.480762738,11.277371679,11.084068771,10.880995311,10.719227259,10.515383557,10.29427196,10.080720225,9.887667396,9.705698031,9.50547296,9.338648328,9.183689903,9.007049703,8.837296655,8.647224758,8.450353235,8.285309159,8.156148796,8.070634573,7.983534855,7.896397624,7.7369603,7.59356799,7.517129103,7.449225383,7.411746171,7.348663957,7.22563301,7.065860581,6.912577681,6.795543607,6.662011879,6.511979994,6.361172867,6.267323539,6.177047827,6.106408253,5.996218818,5.888527665,5.797624258,5.699621132,5.610183182,5.52969553,5.450275711,5.362053142,5.307078462,5.26351985,5.19299281,5.115663645,5.199577368,5.343929978,5.433875586,5.446447015,5.41030322,5.324551422,5.226868396,5.104022507,4.956298843,4.819826196,4.736957799,4.613436699,4.51241513,4.405496718,4.414927165,4.431147234,4.408815255,4.338850891,4.234585808,4.090343232,4.026455767,3.923123476,3.788463895,3.725796812,3.553820569,3.365494217,3.299688653,3.288645202,3.293941857,3.298610816,3.315531103,3.368645202,3.475911222,3.601067834,3.633708034,3.700591435,3.827363551,3.927207252,3.854887152,3.782789622,3.870957174,3.993850578,4.027846202,4.03286277,3.955623632,3.945658018,3.850645827,3.744942795,3.634733354,3.489680525,3.330093154,3.26896155,3.172508909,3.037611754,2.879452329,2.782747108,2.770818381,2.799497343,2.698473273,2.755958737,2.760242576,2.716173804,2.692999062,2.676116286,2.641800563,2.563788684,2.522665833,2.482673335,2.477021569,2.474370741,2.471472335,2.436116286,2.43248015,2.431724914,2.43033448,2.397411691,2.365894342,2.335177243,2.318171929,2.291911222,2.256422632,2.241522976,2.246722101,2.190234448,2.147288528,2.107170991,2.073155361,2.053186621,2.008580181,1.955611128,2.009107846,2.00076774,1.895707409,1.824632698,1.820891529,1.799502344,1.777107846,1.768117537,1.774597062,1.796899031
3.127717412,3.149594248,3.208975305,3.258483276,3.320855267,3.379823695,3.420909034,3.467983745,3.520302595,3.545395436,3.57702282,3.6134392,3.666013129,3.729555486,3.783852454,3.820201313,3.862294467,3.902001876,3.961225383,4.001317912,4.045011566,4.101614254,4.174331979,4.272957799,4.334156924,4.373451704,4.416622695,4.503089716,4.565444201,4.632772741,4.711114723,4.782089403,4.834118162,4.869934354,4.969350422,5.083413567,5.166832135,5.240212566,5.323398562,5.405401688,5.464485152,5.546060644,5.640725227,5.754235699,5.864822757,5.960765239,6.049165364,6.142216943,6.226933417,6.327267271,6.453319162,6.565276649,6.688567677,6.817065333,6.942949672,7.095854955,7.280285089,7.449590497,7.652483901,7.849047827,8.03753673,8.233800563,8.431399812,8.634985933,8.847764927,9.079122226,9.318349484,9.555291028,9.778973429,10.021526727,10.242168178,10.450355736,10.698183182,10.966034386,11.232092529,11.488132541,11.715228509,11.951132229,12.266100656,12.602995936,12.890085652,13.078842138,13.203831197,13.394955924,13.6336005,13.807764927,13.943757424,13.983864958,13.947113473,13.736740231,13.506063145,13.29625508,13.135677399,13.044954048,12.943337293,12.801843076,12.556343857,12.311589872,12.085161613,11.883323539,11.665082838,11.442395749,11.246927165,11.032732729,10.790864645,10.563481088,10.341594248,10.128387621,9.926914661,9.736980306,9.530053142,9.366637074,9.192810253,9.035201,8.883043451,8.721462957,8.536945295,8.385913098,8.235223507,8.095984995,7.94735855,7.795691153,7.640687715,7.519672398,7.424002501,7.316483901,7.201112848,7.14140919,7.097327915,7.033262895,6.897838074,6.716643951,6.579496093,6.444226321,6.322403251,6.237214129,6.173349172,6.079829947,5.985958112,5.864562676,5.762715849,5.696285089,5.636081275,5.550229447,5.458608315,5.36723226,5.265095342,5.205364176,5.142732104,5.063819944,5.081092842,5.218223195,5.323045952,5.336817756,5.301751797,5.206969678,5.115606127,4.990914661,4.861744295,4.735764927,4.607574867,4.51011191,4.397899344,4.286829634,4.276468897,4.316836511,4.315438575,4.285934354,4.176162551,4.020353861,3.897670522,3.897327915,3.739686152,3.577230384,3.511832448,3.363060957,3.316046264,3.295274773,3.292538918,3.310329478,3.322900907,3.360725227,3.427706158,3.50537543,3.573876837,3.642075649,3.730830885,3.81084839,3.725084089,3.592752735,3.660238825,3.78873648,3.842895905,3.827603626,3.769007815,3.754000625,3.667886214,3.63216005,3.621139106,3.490953423,3.317584245,3.183944983,3.109284151,3.056477649,2.915843701,2.775567365,2.710707096,2.662449515,2.611971241,2.63350547,2.706098156,2.675143482,2.640817756,2.612583932,2.614652079,2.565256643,2.50534542,2.4601613,2.436728978,2.428021257,2.43507096,2.411533604,2.400357612,2.383652391,2.397391685,2.374489528,2.334792123,2.30281713,2.287734917,2.257442951,2.204773992,2.186245702,2.205219131,2.175024695,2.138918412,2.08719975,2.032557674,2.006822132,2.014642076,1.940824008,1.925649265,1.903819944,1.837971866,1.804941544,1.807282276,1.78700844,1.78191935,1.77481463,1.754510785,1.817750547
3.084623945,3.141476711,3.191997499,3.253879337,3.322500781,3.384537668,3.425015317,3.46524789,3.483113473,3.507736168,3.553775555,3.584345108,3.614039387,3.680557674,3.718329478,3.761750547,3.825270397,3.888505158,3.966391997,3.990512035,4.023254767,4.102727102,4.159637387,4.217360425,4.2726402,4.302542044,4.389519225,4.476886527,4.553770553,4.636306346,4.669771804,4.725704283,4.758742107,4.839954986,4.944020006,5.040402626,5.14703845,5.218310722,5.287699906,5.374484526,5.4524814,5.534371991,5.61964864,5.732496405,5.843376055,5.94031885,6.030141919,6.117144108,6.208025008,6.309064083,6.435178493,6.547978743,6.660466396,6.756819006,6.908058768,7.070994686,7.189669272,7.358644576,7.558041888,7.751399812,7.944410128,8.156721475,8.383149734,8.59228759,8.818955924,9.033382932,9.257955611,9.49136105,9.756648953,10.030066896,10.288925289,10.555336043,10.823547359,11.075311035,11.315548609,11.575269772,11.859991247,12.125434198,12.374044389,12.644071272,12.972571429,13.276791497,13.478772116,13.621564239,13.869109097,14.111797437,14.23331291,14.284106283,14.048137543,13.891278525,13.702164426,13.536047515,13.41167865,13.32332854,13.17155111,12.929122851,12.695447327,12.484819006,12.249725539,11.982577055,11.772041263,11.573999375,11.318637074,11.064020006,10.83785683,10.622587058,10.38918412,10.154000625,9.939113473,9.726754611,9.529432948,9.377180369,9.203015942,9.049750547,8.90556799,8.75193748,8.588306346,8.413591747,8.264397624,8.122128165,8.00684714,7.857070334,7.724518912,7.583907471,7.476226321,7.370498281,7.250988434,7.115721163,6.977545483,6.864250078,6.809325414,6.732173804,6.64220819,6.524193811,6.374907158,6.214582057,6.131211003,6.119994998,6.024820256,5.883673648,5.758264458,5.645844326,5.593512973,5.515688653,5.430709597,5.328557674,5.225112848,5.149159112,5.102594561,5.035373554,4.970843389,5.063752423,5.145818068,5.166764614,5.14000125,5.039537355,4.968812754,4.872357612,4.767607377,4.62134417,4.527319787,4.416795249,4.304155048,4.18675336,4.157464208,4.212753986,4.219155986,4.215879962,4.139128478,3.987401063,3.806089403,3.828283839,3.745998124,3.554428259,3.431187246,3.357961863,3.330195686,3.303844952,3.283901219,3.295089716,3.321738043,3.357079087,3.43283276,3.520010003,3.50374242,3.453374179,3.573971866,3.675633636,3.585905595,3.466130666,3.498420756,3.625057831,3.682563301,3.625577993,3.589464208,3.557584245,3.466058143,3.455969991,3.580231322,3.524201313,3.384677712,3.254424508,3.124879025,3.003356049,2.953560488,2.87238512,2.745360425,2.662009378,2.666343232,2.596586433,2.60652954,2.628058768,2.587411066,2.526532041,2.548939043,2.562065646,2.499913723,2.430409503,2.404291341,2.390629572,2.400022507,2.377993123,2.340121288,2.349906846,2.353620506,2.345392935,2.329257893,2.282345733,2.251150985,2.231329791,2.19833698,2.152247577,2.162920913,2.144472648,2.128347609,2.118982182,2.051921225,1.973936855,1.986088153,1.934789622,1.861131604,1.83206252,1.809420444,1.783342294,1.789694279,1.779045952,1.782859644,1.7881588,1.748836511,1.824390122
